# .PCD v0.7 - Point Cloud Data file format
VERSION 0.7
FIELDS x y z rgb
SIZE 4 4 4 4
TYPE F F F F
COUNT 1 1 1 1
WIDTH 750
HEIGHT 1
VIEWPOINT 0 0 0 1 0 0 0
POINTS 750
DATA ascii
0.69415361 0.59309709 1.5095266 1.4111395e-38
0.69712788 0.56376934 1.4889241 1.4295426e-38
0.69755834 0.54864568 1.4670861 1.4479463e-38
0.69472301 0.52708489 1.4770001 1.4940789e-38
0.69934553 0.51262033 1.4589723 1.4572013e-38
0.65490955 0.59200639 1.5063928 1.4203225e-38
0.60669464 0.59045899 1.5026923 1.4293976e-38
0.65907222 0.55830836 1.4928032 1.4570928e-38
0.67560095 0.54941577 1.4700001 1.4294707e-38
0.65115553 0.51984626 1.4814701 1.4662764e-38
0.65719402 0.50170022 1.4612765 1.457129e-38
0.60259831 0.55868644 1.4925921 1.4661675e-38
0.59271991 0.54641539 1.4669998 1.4478007e-38
0.61153507 0.52499586 1.4844165 1.4660958e-38
0.60135591 0.50096387 1.462286 1.4753874e-38
0.69372505 0.46307442 1.439278 1.4940078e-38
0.68932313 0.42633003 1.4303601 1.5031914e-38
0.68975842 0.40531197 1.4184003 1.5031914e-38
0.68748283 0.36940232 1.4075001 1.5492167e-38
0.68255335 0.32546076 1.3886667 1.5492527e-38
0.65611112 0.46316591 1.4478368 1.4938993e-38
0.65461242 0.41874787 1.4343195 1.5123385e-38
0.60682124 0.46321791 1.4497298 1.5030459e-38
0.60602307 0.41794449 1.4342144 1.521413e-38
0.65521008 0.39632869 1.4194121 1.5123385e-38
0.60372406 0.39268604 1.4210001 1.5398163e-38
0.65513474 0.36213762 1.4068699 1.5307414e-38
0.65470296 0.31286445 1.3847228 1.5491446e-38
0.6060437 0.36039901 1.4095986 1.5489997e-38
0.60502589 0.31358171 1.3860968 1.5674028e-38
0.64013964 0.28428316 1.3760002 1.5582562e-38
0.64973748 0.26045132 1.3622664 1.5675474e-38
0.64582992 0.21361686 1.3466222 1.6043176e-38
0.60208023 0.28360137 1.3759998 1.5949894e-38
0.60618621 0.25661242 1.363856 1.604245e-38
0.60498995 0.21077716 1.3481956 1.6226839e-38
0.64158005 0.17106201 1.3308889 1.5950982e-38
0.60453373 0.16842587 1.3315783 1.6318674e-38
0.45440352 0.60453093 1.529 1.4842437e-38
0.55400664 0.59216762 1.5034074 1.4292886e-38
0.51050544 0.59152997 1.5076671 1.4751696e-38
0.55412197 0.56250155 1.4906061 1.4660586e-38
0.56423587 0.54619402 1.4700001 1.4385076e-38
0.55991501 0.52790475 1.4820249 1.4844257e-38
0.55688208 0.50564778 1.4633325 1.484462e-38
0.50397271 0.55992061 1.4916065 1.475205e-38
0.51078218 0.52857715 1.4808824 1.502864e-38
0.50485498 0.50644195 1.4637465 1.5119757e-38
0.44584757 0.59318823 1.5099504 1.4934274e-38
0.41036263 0.5913465 1.5006503 1.4656965e-38
0.45742777 0.56182367 1.4891151 1.4934996e-38
0.43906012 0.54404628 1.4700001 1.4934631e-38
0.46150896 0.52989894 1.4783332 1.5487452e-38
0.45329326 0.50980002 1.4634683 1.5210502e-38
0.40332168 0.56181204 1.4892591 1.4933905e-38
0.42430449 0.53964311 1.47 1.5025748e-38
0.40287641 0.52644026 1.4782859 1.5485999e-38
0.4073053 0.50806779 1.464378 1.5486357e-38
0.20151848 0.60147333 1.5327058 1.5302305e-38
0.35682434 0.59189171 1.5051111 1.4749509e-38
0.30280629 0.59451193 1.5154746 1.5209758e-38
0.35931709 0.56096983 1.493497 1.5118294e-38
0.35477459 0.52206808 1.4780173 1.5762581e-38
0.35685945 0.50197357 1.4676185 1.5762583e-38
0.30487421 0.56012619 1.4924793 1.5302321e-38
0.30681175 0.51429105 1.4795387 1.6039164e-38
0.29905003 0.49393007 1.4700001 1.6223194e-38
0.25600815 0.59265566 1.5090624 1.5117925e-38
0.2058778 0.59392506 1.5172579 1.5302315e-38
0.25519407 0.56029761 1.4974005 1.5578546e-38
0.25427356 0.51519156 1.4814799 1.6223551e-38
0.2680496 0.49333346 1.4700001 1.6315384e-38
0.20585369 0.56026143 1.5012088 1.576293e-38
0.20586786 0.51227647 1.4857806 1.6500137e-38
0.55551946 0.46283776 1.4487892 1.5397071e-38
0.55497396 0.42084745 1.4319867 1.5397071e-38
0.50561488 0.46153101 1.4507363 1.5580375e-38
0.50299019 0.41862324 1.4332094 1.5579655e-38
0.55408162 0.39717153 1.419228 1.5488908e-38
0.51002586 0.39744735 1.4185299 1.5580376e-38
0.55546498 0.36158329 1.4068857 1.5765133e-38
0.55373484 0.31197661 1.3852772 1.6041357e-38
0.54526913 0.29004955 1.3700001 1.6225746e-38
0.50504434 0.36192709 1.4094909 1.6040633e-38
0.50425649 0.3122068 1.3887993 1.6316498e-38
0.45645091 0.4609943 1.4526511 1.585551e-38
0.45461953 0.4130407 1.4337733 1.5762958e-38
0.40556535 0.46042216 1.4507412 1.5946618e-38
0.40585646 0.41250804 1.4323775 1.594698e-38
0.46409965 0.39131963 1.4202501 1.6039903e-38
0.41965979 0.39022908 1.4210002 1.5854778e-38
0.40407407 0.38405803 1.427 1.6408321e-38
0.45551082 0.36159185 1.4124794 1.6407963e-38
0.45550555 0.31248257 1.3917475 1.6407605e-38
0.40539661 0.36132529 1.4119426 1.6683819e-38
0.40583265 0.3116391 1.393618 1.6867491e-38
0.56094617 0.28198522 1.3763126 1.6317222e-38
0.55535287 0.25780007 1.3663788 1.6409419e-38
0.55501741 0.21184124 1.3494756 1.6593812e-38
0.50216836 0.27788594 1.3768333 1.6592726e-38
0.50679874 0.25436792 1.367193 1.6592725e-38
0.50677371 0.21114036 1.34988 1.6869669e-38
0.55573112 0.16438387 1.3313329 1.6778201e-38
0.54368764 0.13388453 1.3280001 1.7147333e-38
0.50436664 0.16976821 1.3332651 1.723773e-38
0.45342848 0.27287421 1.3801407 1.6961136e-38
0.45565444 0.24926527 1.3692453 1.7145167e-38
0.45610639 0.21353109 1.3563976 1.742211e-38
0.40621394 0.27038547 1.3804084 1.7513222e-38
0.40547639 0.24757333 1.3683691 1.7605416e-38
0.40488186 0.21308553 1.3579774 1.7882358e-38
0.45359358 0.16149318 1.3363053 1.7790172e-38
0.44899827 0.13353175 1.3280001 1.843518e-38
0.40820453 0.16240272 1.3386971 1.8158229e-38
0.41226584 0.12923513 1.3279996 1.834262e-38
0.35508335 0.4615061 1.45612 1.6315038e-38
0.35481197 0.41202521 1.4342769 1.6499066e-38
0.30029422 0.48470053 1.4770001 1.6498353e-38
0.30448893 0.46199599 1.4592109 1.668381e-38
0.30548915 0.4119333 1.442234 1.6960757e-38
0.3516883 0.37870643 1.427 1.7329185e-38
0.30217695 0.37522882 1.4287896 1.7605405e-38
0.35701182 0.35601369 1.4134526 1.7052599e-38
0.35458159 0.31149581 1.3973006 1.7328465e-38
0.30689406 0.35056287 1.4163765 1.7421017e-38
0.30522534 0.31074846 1.4041897 1.8250415e-38
0.25562268 0.46163648 1.4617676 1.6960396e-38
0.25563505 0.40941817 1.4407088 1.7420654e-38
0.19488561 0.48216164 1.4769999 1.6776008e-38
0.20742068 0.46038327 1.4655484 1.7236976e-38
0.20547333 0.41355184 1.4480662 1.7697957e-38
0.25760978 0.37558824 1.4289151 1.8158575e-38
0.20370372 0.37331688 1.430549 1.834296e-38
0.25581688 0.35084736 1.4176347 1.7881991e-38
0.25657398 0.31185603 1.4029826 1.8711388e-38
0.20720874 0.34772661 1.4175246 1.8526634e-38
0.20427968 0.31386164 1.4058894 1.9080165e-38
0.3553566 0.26488951 1.3809609 1.7881636e-38
0.35743257 0.24283393 1.3700002 1.8066392e-38
0.3340092 0.23495913 1.376 1.8711397e-38
0.35526025 0.21177323 1.3602582 1.8434807e-38
0.30403557 0.26329899 1.3853614 1.8618834e-38
0.30187166 0.23054472 1.3759998 1.8987977e-38
0.30695817 0.20707747 1.3634998 1.8895781e-38
0.35454172 0.16155788 1.3405451 1.8711035e-38
0.3538366 0.13095026 1.3304193 1.9172372e-38
0.30533573 0.16131128 1.344432 1.9264204e-38
0.30319139 0.12646712 1.3315108 1.9632624e-38
0.25552148 0.26290229 1.3868793 1.8987973e-38
0.25220278 0.22981596 1.3764545 1.9448595e-38
0.25691199 0.20549519 1.3644415 1.9632983e-38
0.20552967 0.26406524 1.3876687 1.9448945e-38
0.20508088 0.22462578 1.376083 2.0093597e-38
0.20636734 0.20118687 1.3644371 2.0093598e-38
0.25542793 0.16267806 1.3465042 1.9725538e-38
0.25680515 0.12673281 1.3336127 2.000104e-38
0.20457256 0.16079663 1.3466599 2.0278706e-38
0.20671698 0.12374415 1.3323517 2.0554567e-38
0.64051664 0.14622347 1.3200004 1.6042456e-38
0.63657451 0.11570767 1.3081667 1.6042453e-38
0.60378784 0.14341511 1.3220003 1.6409789e-38
0.60585415 0.11176263 1.3075836 1.6317954e-38
0.55680752 0.15142111 1.3220003 1.6778202e-38
0.55644131 0.11504515 1.3117731 1.6777482e-38
0.50981617 0.14703305 1.3208458 1.723773e-38
0.50617778 0.1136794 1.3098521 1.7237371e-38
0.47748876 0.14139231 1.322 1.7697974e-38
0.45594969 0.11167569 1.3136414 1.7698337e-38
0.38911858 0.14139231 1.322 1.8342256e-38
0.40436161 0.10917708 1.316129 1.825042e-38
0.37897775 0.14139231 1.322 1.8618847e-38
0.35596812 0.10659069 1.3167003 1.8895065e-38
0.30699867 0.10318469 1.3176975 1.9540427e-38
0.25356358 0.10161738 1.3178749 2.018615e-38
0.20480672 0.099928819 1.3187854 2.0923712e-38
0.60472983 0.06131725 1.2870603 1.6317595e-38
0.61131817 0.038935885 1.273 1.5304162e-38
0.58707911 0.033984859 1.2780001 1.6686006e-38
0.60098886 0.012720766 1.2679574 1.6225037e-38
0.59626138 -0.037117049 1.2486973 1.6040641e-38
0.59241956 -0.080187112 1.232527 1.5671857e-38
0.58928782 -0.10770775 1.2229999 1.5855525e-38
0.58839148 -0.11402102 1.2270001 1.5303061e-38
0.58645761 -0.13388266 1.212468 1.5210517e-38
0.58135092 -0.17797315 1.197 1.5117958e-38
0.55667496 0.062047485 1.2919729 1.6777482e-38
0.55043948 0.034149408 1.2787693 1.6869673e-38
0.55496693 0.0091112582 1.2683097 1.6684925e-38
0.5045954 0.061988566 1.2896848 1.7421758e-38
0.50193042 0.030569248 1.2792002 1.7329561e-38
0.5062288 0.0094829965 1.268207 1.7237368e-38
0.55525327 -0.03818085 1.2501354 1.6407976e-38
0.55329233 -0.081242613 1.2323014 1.6223942e-38
0.50477242 -0.03753686 1.2510859 1.6960781e-38
0.50712985 -0.082630381 1.2331929 1.677567e-38
0.5564853 -0.10543915 1.2228997 1.6223223e-38
0.49765322 -0.10493126 1.2214869 1.6960413e-38
0.4547829 0.062956348 1.2947991 1.7973843e-38
0.45217204 0.024170343 1.2806787 1.7882009e-38
0.45788744 0.0033018405 1.2680626 1.7881649e-38
0.40556985 0.061095204 1.2982082 1.843445e-38
0.40342855 0.021478832 1.2819724 1.8526648e-38
0.40769142 -0.0013671014 1.270141 1.8434813e-38
0.45541313 -0.037368007 1.2530459 1.7697255e-38
0.45486116 -0.085539721 1.2324188 1.7512863e-38
0.40605375 -0.039599158 1.2560947 1.8434091e-38
0.40496919 -0.087819576 1.2358892 1.8341894e-38
0.45419517 -0.11008438 1.2229999 1.7973121e-38
0.55515695 -0.13952115 1.2117597 1.5578571e-38
0.55515873 -0.18947004 1.1945027 1.5117593e-38
0.50513077 -0.13862547 1.2113179 1.6038465e-38
0.5054453 -0.18848871 1.1943232 1.5761875e-38
0.5522846 -0.22889729 1.1812707 1.4749165e-38
0.55212981 -0.25126705 1.1695009 1.4472576e-38
0.54708183 -0.28747487 1.1534494 1.4195989e-38
0.50435597 -0.2290456 1.1805807 1.5485646e-38
0.50604469 -0.24914412 1.1698953 1.5209416e-38
0.50557053 -0.2883884 1.1571468 1.4748438e-38
0.43134367 -0.11509669 1.2270001 1.7879119e-38
0.39648446 -0.11848081 1.2274169 1.7235189e-38
0.4558374 -0.137949 1.2113887 1.6867135e-38
0.45415589 -0.18777199 1.1923943 1.6682741e-38
0.40634128 -0.13906273 1.2144946 1.7696526e-38
0.40479264 -0.18883358 1.1981488 1.7603969e-38
0.45551932 -0.22889669 1.1787565 1.631432e-38
0.45635644 -0.25079787 1.169027 1.6037732e-38
0.4558607 -0.28889096 1.1560631 1.5485277e-38
0.40360487 -0.23300153 1.1808016 1.7235547e-38
0.41184312 -0.25509518 1.1710478 1.6774931e-38
0.385391 -0.26672977 1.177 1.6681295e-38
0.40494999 -0.28997329 1.1577046 1.6222115e-38
0.35502356 0.062558331 1.2984711 1.9171645e-38
0.35483953 0.02153294 1.2812552 1.9172009e-38
0.35743171 -0.0028619943 1.2704899 1.9263845e-38
0.30431163 0.062146958 1.3017348 1.9817013e-38
0.30541193 0.020208256 1.2823 1.990957e-38
0.30676687 -0.003921364 1.2705572 1.990921e-38
0.35493204 -0.038633391 1.2555763 1.9171649e-38
0.35524213 -0.088752709 1.2358508 1.9079092e-38
0.30509484 -0.037274607 1.259129 2.0001045e-38
0.30690381 -0.090235181 1.2386065 2.0000685e-38
0.25519326 0.061313663 1.3033088 2.0554574e-38
0.25717041 0.017178699 1.2828366 2.0554572e-38
0.24945396 -0.0033511424 1.2725002 2.0738964e-38
0.20479943 0.06067675 1.3018835 2.1108102e-38
0.20383343 0.019437624 1.2834891 2.1292493e-38
0.21084563 -0.0040279026 1.271571 2.1292135e-38
0.25524458 -0.036884759 1.2613262 2.0738964e-38
0.25516444 -0.087815762 1.2409644 2.0738604e-38
0.20512439 -0.03747895 1.2596062 2.1384329e-38
0.20492063 -0.088585481 1.2399139 2.1476164e-38
0.35868219 -0.11708669 1.227 1.815678e-38
0.29815194 -0.11885752 1.2283463 1.9171283e-38
0.35426509 -0.14009729 1.2163076 1.8710671e-38
0.35502753 -0.18949924 1.2005565 1.8341888e-38
0.3057498 -0.14266287 1.2176536 1.9632262e-38
0.30471492 -0.19127487 1.202786 1.9263478e-38
0.35669246 -0.23572615 1.1837581 1.7880909e-38
0.34980977 -0.256037 1.1730002 1.7696519e-38
0.36465108 -0.26600748 1.177 1.7328465e-38
0.35440576 -0.2893627 1.1600916 1.7143348e-38
0.30371165 -0.23733805 1.1840022 1.8802501e-38
0.31665152 -0.25703964 1.1727897 1.8157852e-38
0.30032179 -0.26883164 1.177 1.8618468e-38
0.30594093 -0.29025331 1.1607482 1.7880908e-38
0.25530154 -0.12157052 1.2284542 1.9632256e-38
0.20086037 -0.11707479 1.2284287 2.0093587e-38
0.25487852 -0.14567278 1.2190665 2.0093597e-38
0.25550738 -0.19113979 1.2062825 2.0092874e-38
0.20546977 -0.14198302 1.2180687 2.0831514e-38
0.20554979 -0.19028392 1.2031631 2.0831155e-38
0.25544199 -0.23883486 1.1865761 1.9447866e-38
0.26541197 -0.26191562 1.1730001 1.8802857e-38
0.25153378 -0.26741225 1.177 1.9354953e-38
0.25622031 -0.29069349 1.1643593 1.8618467e-38
0.20511386 -0.23842801 1.1853904 2.0093591e-38
0.21602765 -0.26027519 1.1730002 1.9724089e-38
0.2130086 -0.27086651 1.177 1.9631894e-38
0.20477216 -0.29004312 1.1636885 1.9448222e-38
0.54186833 -0.33608204 1.1339929 1.3642453e-38
0.50563776 -0.33881295 1.1379874 1.4011233e-38
0.49984446 -0.37109789 1.1280001 1.3550611e-38
0.45640978 -0.33869448 1.1380379 1.4839909e-38
0.45852166 -0.37289533 1.127755 1.4010867e-38
0.40570059 -0.3396883 1.1390799 1.5577106e-38
0.40212223 -0.3723686 1.127966 1.4932459e-38
0.54311401 -0.36117899 1.1230001 1.3273674e-38
0.53671628 -0.3846941 1.1143231 1.281341e-38
0.51784521 -0.36032575 1.123 1.3550974e-38
0.50796962 -0.39406139 1.1143456 1.2997437e-38
0.50618458 -0.42545897 1.0993717 1.2352781e-38
0.45548287 -0.39275151 1.1195183 1.3826833e-38
0.40645215 -0.39249733 1.118951 1.4564034e-38
0.45740652 -0.42567381 1.1065934 1.3181461e-38
0.40414008 -0.42482209 1.1085422 1.4011218e-38
0.35508662 -0.34060749 1.1403722 1.6406502e-38
0.35324615 -0.37549207 1.1279627 1.5761854e-38
0.30457035 -0.33995193 1.1416774 1.7235898e-38
0.30385107 -0.3736749 1.1281595 1.6498696e-38
0.25619522 -0.33747733 1.1469592 1.7881622e-38
0.25434244 -0.37749919 1.1315787 1.7235897e-38
0.20423719 -0.33811614 1.1458218 1.8066376e-38
0.20828381 -0.37630215 1.129369 9.3099692e-39
0.35596445 -0.39512709 1.1194088 1.5301235e-38
0.30652478 -0.39688298 1.1185082 1.6038077e-38
0.35507274 -0.42772084 1.1102276 1.4655863e-38
0.30533963 -0.42809892 1.1105808 1.5393426e-38
0.25463369 -0.40252131 1.1191329 1.6775276e-38
0.20186199 -0.39790595 1.1177672 1.0876573e-38
0.25584736 -0.42690501 1.1121275 1.6314661e-38
0.20550869 -0.42609245 1.1080632 1.5762943e-38
0.17276554 0.5955416 1.5305001 1.5394863e-38
0.081765823 0.59648836 1.529 1.5763288e-38
0.1782763 0.58174372 1.529 1.5854409e-38
0.061763674 0.60285032 1.5304002 1.4748773e-38
-0.00034892591 0.59997898 1.5357016 1.5670366e-38
0.0079174349 0.57949179 1.5289998 1.5947315e-38
0.15131673 0.59486961 1.5208787 1.5394505e-38
0.10390142 0.59278232 1.5125637 1.5209029e-38
0.15477973 0.5582332 1.5056431 1.6131351e-38
0.15523235 0.5111472 1.4906301 1.6776e-38
0.10640214 0.56184566 1.5037258 1.6039153e-38
0.1042705 0.5111267 1.4883753 1.714442e-38
0.05374774 0.59454221 1.5203748 1.5209032e-38
0.017825602 0.59494412 1.5230004 1.5578889e-38
0.056433149 0.56009531 1.5065404 1.6223184e-38
0.054199629 0.51222503 1.4909741 1.7328807e-38
0.0054327701 0.55814028 1.5125211 1.6499408e-38
0.0047221836 0.51082259 1.4931225 1.7329164e-38
-0.040180042 0.60134518 1.530974 1.5854759e-38
-0.097487986 0.60023063 1.5300496 1.5762926e-38
-0.030829737 0.58710539 1.529 1.6131699e-38
-0.14783849 0.60098124 1.5371661 1.5670725e-38
-0.1928028 0.60109723 1.5364996 1.5947309e-38
-0.14395574 0.58320528 1.5313332 1.5762559e-38
-0.18857555 0.57484674 1.5339997 1.5762916e-38
-0.055790756 0.59157276 1.5230001 1.5485618e-38
-0.083670229 0.59392518 1.5230002 1.5762921e-38
-0.042652786 0.5599249 1.5089403 1.6407571e-38
-0.044607501 0.51070422 1.4918404 1.7328802e-38
-0.095681056 0.5618704 1.5123801 1.6315377e-38
-0.094543472 0.51174474 1.4945503 1.7236606e-38
-0.20977415 0.59353304 1.5223637 1.5670366e-38
-0.14383462 0.55816871 1.5132362 1.6223178e-38
-0.14331159 0.51233083 1.4986091 1.7052578e-38
-0.19921546 0.55678505 1.5180118 1.576256e-38
-0.19374257 0.51238143 1.4997592 1.7052216e-38
0.1537458 0.4754529 1.4770004 1.7329171e-38
0.15751448 0.45434448 1.4675303 1.7513201e-38
0.15470614 0.41305625 1.4495513 1.7974901e-38
0.10098287 0.47513777 1.4774395 1.7605038e-38
0.10942951 0.45676517 1.4675853 1.8066012e-38
0.10464545 0.41206089 1.4489558 1.8251122e-38
0.15393187 0.36952779 1.4304074 1.8711381e-38
0.10750114 0.36868554 1.4333166 1.9080158e-38
0.12510034 0.3340179 1.427 1.9172723e-38
0.15322384 0.34622225 1.4194396 1.8803576e-38
0.15481474 0.31186035 1.4070553 1.9356749e-38
0.10425826 0.34860379 1.4190414 1.8895404e-38
0.10525145 0.31152642 1.4068046 1.9633334e-38
0.055956326 0.47233871 1.4782209 1.8066368e-38
0.05567855 0.45194986 1.4690531 1.8158203e-38
0.055555426 0.4132711 1.4526415 1.843515e-38
0.0027974001 0.47096145 1.4806399 1.8066725e-38
0.010534293 0.45018378 1.4692179 1.8066368e-38
0.0059426399 0.41225117 1.4548694 1.8527346e-38
0.0559076 0.36550468 1.4337922 1.9172353e-38
0.0037313334 0.36332706 1.435565 1.9080516e-38
0.05545865 0.34366366 1.421 1.9356744e-38
0.055909719 0.31218174 1.4101925 1.9817723e-38
0.011438188 0.3421264 1.4210004 1.9448579e-38
0.0048413477 0.3118231 1.4133098 2.0001752e-38
0.15464871 0.26182276 1.3889372 1.9817728e-38
0.15475303 0.22135903 1.3772298 2.0831517e-38
0.15837638 0.19750117 1.3656168 2.0370541e-38
0.10533945 0.26290709 1.3872194 2.0094312e-38
0.10831735 0.22476257 1.3764544 2.0832234e-38
0.10147028 0.20729145 1.3665267 2.0739681e-38
0.15449186 0.16131465 1.3490573 2.0739684e-38
0.15364 0.12197065 1.332741 2.0924064e-38
0.10530669 0.16163142 1.3467911 2.1108464e-38
0.10668853 0.1178591 1.331735 2.1661626e-38
0.055569507 0.26144668 1.389632 2.0462728e-38
0.05368486 0.22388397 1.3767929 2.1108099e-38
0.057838161 0.20096543 1.3672292 2.1015902e-38
0.0045310357 0.26198998 1.3950713 2.0647477e-38
0.0041241902 0.21864732 1.3801862 2.1292849e-38
0.0069649387 0.19471641 1.3693241 2.0923345e-38
0.055416398 0.16254218 1.3492273 2.1385406e-38
0.053016998 0.11812026 1.3312428 2.1753822e-38
0.0055281287 0.16229464 1.3550727 2.1569796e-38
0.0037764257 0.11537882 1.334504 2.2214438e-38
-0.044337429 0.47354382 1.4813641 1.788198e-38
-0.045954678 0.45179787 1.4676008 1.8342235e-38
-0.044679686 0.41170123 1.4559125 1.861954e-38
-0.096704334 0.470615 1.4804848 1.8066005e-38
-0.09172634 0.44930109 1.4675752 1.8435146e-38
-0.094144933 0.41239163 1.4588789 1.8527703e-38
-0.043381691 0.36526468 1.4357561 1.9080156e-38
-0.066303179 0.3365199 1.427 1.9908477e-38
-0.094503142 0.36228916 1.4371156 1.9264184e-38
-0.095046468 0.33467317 1.427 1.9725521e-38
-0.050927173 0.34287602 1.4210002 1.9633328e-38
-0.044031888 0.31244084 1.4139256 2.0093587e-38
-0.071007371 0.34008792 1.4210001 1.981628e-38
-0.095175333 0.31002137 1.4159185 2.018614e-38
-0.14633459 0.46439317 1.4820112 1.7973809e-38
-0.13177264 0.44225731 1.4691428 1.8435505e-38
-0.16185458 0.43488011 1.4770001 1.7975976e-38
-0.14355299 0.41165838 1.4623356 1.8434788e-38
-0.19503739 0.46204072 1.4811119 1.7789418e-38
-0.19126455 0.44084281 1.47 1.7973808e-38
-0.18544938 0.43189994 1.4770001 1.8066365e-38
-0.19388498 0.41014311 1.4616424 1.8250398e-38
-0.14418517 0.36318335 1.4433858 1.9263824e-38
-0.14698763 0.32755682 1.4285002 1.9725161e-38
-0.19419201 0.36439738 1.4433491 1.8987959e-38
-0.19669424 0.3234053 1.4299145 1.9632968e-38
-0.14260215 0.3035892 1.4174995 2.0277974e-38
-0.19209285 0.29970437 1.4180634 2.0093946e-38
-0.044128757 0.26225191 1.3966465 2.0647117e-38
-0.043712799 0.21904173 1.37984 2.1200654e-38
-0.044947091 0.19743343 1.3691664 2.0923701e-38
-0.094032608 0.26252049 1.400187 2.0738952e-38
-0.093372814 0.21756732 1.3840407 2.1292849e-38
-0.096483022 0.19262499 1.3700002 2.0923702e-38
-0.043666925 0.16228868 1.3548508 2.1661635e-38
-0.044358801 0.11293134 1.3358796 2.2214799e-38
-0.095126584 0.16108368 1.3577828 2.1753464e-38
-0.094787769 0.11140601 1.3374615 2.2306635e-38
-0.14421453 0.26113209 1.4023106 2.0462367e-38
-0.14537235 0.21197368 1.3844752 2.1108095e-38
-0.14515348 0.19199376 1.37 2.1015538e-38
-0.19367215 0.26187372 1.4054261 2.0186143e-38
-0.19528988 0.21079364 1.3834407 2.0831508e-38
-0.1640559 0.18456288 1.376 2.1385404e-38
-0.14402805 0.159798 1.3634548 2.166091e-38
-0.14414231 0.11195552 1.3426425 2.2122604e-38
-0.2006468 0.18322256 1.3760002 2.1108452e-38
-0.19392067 0.16013843 1.3615835 2.1385039e-38
-0.1943232 0.11206524 1.3428081 2.1938217e-38
-0.24602322 0.60251456 1.5412501 1.5947309e-38
-0.29450208 0.60328233 1.5463567 1.4380335e-38
-0.24538121 0.58057249 1.5308062 1.5394495e-38
-0.29461333 0.57560533 1.5299331 1.373497e-38
-0.34015247 0.60458291 1.5502416 1.0877987e-38
-0.33577394 0.57183146 1.5354445 1.1706304e-38
-0.22030196 0.59281254 1.5230001 1.5671075e-38
-0.24330823 0.55947024 1.515769 1.5670719e-38
-0.24388486 0.5129385 1.5017523 1.6775988e-38
-0.29297516 0.55866051 1.5173913 1.4471815e-38
-0.29522616 0.51409656 1.5043095 1.5024267e-38
-0.34239271 0.54850322 1.5168965 9.4021452e-39
-0.33804306 0.51317567 1.5037416 1.1798863e-38
-0.24434383 0.46192247 1.4813038 1.7605386e-38
-0.24968563 0.43794319 1.47 1.7051857e-38
-0.25637767 0.43247545 1.4770001 1.8158196e-38
-0.24453197 0.41198796 1.4623536 1.797417e-38
-0.29415461 0.46084088 1.4838884 1.6037697e-38
-0.29721895 0.4276557 1.4769999 1.6499031e-38
-0.29462406 0.4061189 1.4645004 1.6498671e-38
-0.24476224 0.36421889 1.4434214 1.8803206e-38
-0.24592319 0.32296336 1.4303038 1.9448218e-38
-0.29467255 0.36354235 1.4478123 1.7328429e-38
-0.29507467 0.31584457 1.4299387 1.8249666e-38
-0.24238248 0.29794168 1.4183687 1.9909552e-38
-0.29087016 0.2942358 1.421 1.9356014e-38
-0.33651599 0.46142781 1.4855338 1.2165841e-38
-0.34763652 0.45315218 1.4676001 1.1156405e-38
-0.339214 0.42786053 1.477 1.3178548e-38
-0.33976412 0.40703714 1.461583 1.2720096e-38
-0.33861178 0.36319268 1.4442545 1.3180349e-38
-0.33275902 0.32133159 1.4301423 1.5115011e-38
-0.34855899 0.34532005 1.4210001 1.1985798e-38
-0.34225234 0.30455956 1.4175375 1.318035e-38
-0.24465738 0.26256326 1.4080797 1.9909553e-38
-0.24541889 0.21145204 1.3864915 2.0462727e-38
-0.29438037 0.26464498 1.4096802 1.8526255e-38
-0.29469559 0.21274175 1.3877789 1.9171623e-38
-0.23769003 0.1837084 1.3760002 2.0832228e-38
-0.24494953 0.15968047 1.36194 2.1108094e-38
-0.24462374 0.11405241 1.3461409 2.1753827e-38
-0.30437878 0.17914408 1.3781155 1.9446765e-38
-0.29246724 0.15782289 1.3637069 2.0001382e-38
-0.29566774 0.11325733 1.3470989 2.0370167e-38
-0.33710462 0.2597931 1.4000733 1.4654394e-38
-0.33837771 0.21217303 1.3821323 1.5023175e-38
-0.35448197 0.19848245 1.36875 1.4196336e-38
-0.32961017 0.17930385 1.377667 1.5760728e-38
-0.34157586 0.15839644 1.3605785 1.5299765e-38
-0.33908221 0.1117838 1.3414055 1.5853297e-38
0.15670416 0.098762587 1.3184177 2.1476885e-38
0.10364711 0.095959522 1.3187851 2.1845304e-38
0.058503773 0.09459462 1.3177288 2.2030053e-38
0.01231274 0.091310799 1.3205003 2.2490662e-38
-0.04169013 0.09113881 1.3220001 2.2491388e-38
-0.35174233 0.095323913 1.322 1.2630094e-38
-0.026776908 0.084211431 1.3280001 2.2582866e-38
-0.10226228 0.080607913 1.3279999 2.2675778e-38
-0.149702 0.077335685 1.3287139 2.2399194e-38
-0.19435115 0.080401272 1.3300269 2.2306638e-38
-0.24744979 0.076876245 1.3328478 2.1938217e-38
-0.2978431 0.073268101 1.3318808 2.0646394e-38
-0.33280095 0.074955687 1.330162 1.6866718e-38
0.15462165 0.061072603 1.3048341 2.1753469e-38
0.15499066 0.013878402 1.2846762 2.1937859e-38
0.15545833 -0.010713569 1.2729999 2.2122254e-38
0.10548978 0.059172418 1.305571 2.2122248e-38
0.10686454 0.013171562 1.2861158 2.2398835e-38
0.096210368 -0.0083842818 1.2729999 2.2676142e-38
0.1548039 -0.037591588 1.2630293 2.1937859e-38
0.15514013 -0.087917082 1.2423766 2.212189e-38
0.11166453 -0.019793378 1.2780001 2.2676866e-38
0.10491714 -0.038020559 1.2647209 2.2214444e-38
0.10479056 -0.090055622 1.2438809 2.249103e-38
0.055143863 0.059733849 1.305621 2.2583944e-38
0.05459401 0.012473271 1.2866858 2.2860171e-38
0.065157034 -0.0096147414 1.2729999 2.2952008e-38
0.0057830606 0.062198792 1.3115523 2.2676135e-38
0.0043939371 0.012897296 1.2908703 2.3044921e-38
0.054849844 -0.038668364 1.2657448 2.2583944e-38
0.055588115 -0.09039446 1.2451419 2.2952366e-38
-0.0017151772 -0.019259738 1.2787144 2.2953087e-38
0.0059544756 -0.043478232 1.2676572 2.2952728e-38
0.0052745943 -0.090982802 1.2502259 2.3229671e-38
0.15265279 -0.12086529 1.2291077 2.1199572e-38
0.1060174 -0.12407754 1.2305926 2.1845301e-38
0.15640348 -0.14428221 1.2197793 2.1568719e-38
0.15509446 -0.18927886 1.2046336 2.1476162e-38
0.1041071 -0.14817102 1.2192377 2.2214084e-38
0.10393731 -0.18763328 1.2060845 2.2029334e-38
0.15563793 -0.2399026 1.1861483 2.0831152e-38
0.15094295 -0.26547682 1.177 2.0738596e-38
0.15516174 -0.29007915 1.1660434 2.009359e-38
0.10596496 -0.23634917 1.1884089 2.129213e-38
0.1035909 -0.2687014 1.1794446 2.1383603e-38
0.10580082 -0.29395264 1.1678189 2.0554565e-38
0.052472327 -0.12654218 1.2311423 2.2398471e-38
0.0037270931 -0.13475527 1.2331436 2.2767974e-38
0.056078561 -0.1475464 1.2201833 2.2583225e-38
0.054637279 -0.18827264 1.2070466 2.2306275e-38
0.0089478437 -0.1579632 1.2212664 2.2860532e-38
0.0049990886 -0.18900217 1.2117873 2.2583222e-38
0.055551596 -0.23625794 1.1897964 2.18453e-38
0.053386595 -0.27299592 1.1795623 2.138396e-38
0.057067771 -0.29601547 1.1677521 2.0831152e-38
0.0043085129 -0.23683965 1.1937846 2.2122247e-38
0.0044414927 -0.27521363 1.1805487 2.1384682e-38
0.0040904856 -0.29689634 1.1698749 2.1200654e-38
-0.044391088 0.061181594 1.3126719 2.2768332e-38
-0.044188935 0.011455603 1.2926556 2.3044924e-38
-0.092837885 0.059260748 1.3144785 2.2860532e-38
-0.096052803 0.012322587 1.2959661 2.3137116e-38
-0.044561915 -0.023203004 1.2804449 2.3230032e-38
-0.044326272 -0.046661414 1.2674302 2.2952725e-38
-0.044301409 -0.089698352 1.2528143 2.3137115e-38
-0.09669061 -0.025073633 1.2822113 2.2953801e-38
-0.093894109 -0.048658546 1.2695645 2.286053e-38
-0.09455055 -0.090118863 1.2568347 2.3137479e-38
-0.14211334 0.05437516 1.3192153 2.267614e-38
-0.14488631 0.011583988 1.3016349 2.2952724e-38
-0.19379325 0.057594746 1.3195537 2.2122969e-38
-0.19394606 0.01308425 1.3040414 2.267614e-38
-0.14636223 -0.03150757 1.2837481 2.2676498e-38
-0.14261043 -0.054059315 1.2711368 2.2767971e-38
-0.14399871 -0.089528359 1.2618786 2.286053e-38
-0.19417591 -0.033943947 1.285785 2.26765e-38
-0.19457808 -0.059236176 1.2726156 2.2399194e-38
-0.19336925 -0.087947994 1.2628953 2.1938576e-38
-0.042994592 -0.1363209 1.2345346 2.2306635e-38
-0.043026801 -0.16672885 1.2270001 2.3043123e-38
-0.095001213 -0.13868284 1.2361417 2.2122607e-38
-0.10719831 -0.17531627 1.227 2.1384323e-38
-0.048504222 -0.15922743 1.223 2.2398834e-38
-0.044139083 -0.187176 1.2149396 2.2491028e-38
-0.092085473 -0.19047673 1.2166188 2.1476156e-38
-0.044450156 -0.23694302 1.1944931 2.230664e-38
-0.044234369 -0.27480066 1.180336 2.1661267e-38
-0.044480342 -0.29724106 1.1699395 2.1292851e-38
-0.095975503 -0.23749955 1.1962588 2.1476879e-38
-0.094574973 -0.27723619 1.1812977 2.1292485e-38
-0.094420739 -0.29954144 1.1694701 2.1201014e-38
-0.14531267 -0.13872719 1.2409257 2.2122247e-38
-0.14594419 -0.17100991 1.2277498 2.1384323e-38
-0.19483326 -0.13928334 1.2406478 2.1477242e-38
-0.20249794 -0.17309634 1.2269999 2.0555646e-38
-0.1448897 -0.19368696 1.2182971 2.0277974e-38
-0.19306926 -0.19313636 1.2188599 1.917199e-38
-0.14578106 -0.23739702 1.1977359 1.9909555e-38
-0.14400561 -0.28107491 1.1807313 2.0186502e-38
-0.14705911 -0.30292112 1.1705765 2.0187223e-38
-0.19485401 -0.23704962 1.19882 1.9079795e-38
-0.19505298 -0.27465454 1.1812171 1.9818081e-38
-0.19378102 -0.29904383 1.1717801 1.9634054e-38
0.15509842 -0.33999968 1.1475166 1.861955e-38
0.15585186 -0.37514648 1.1293824 6.3604223e-39
0.10502777 -0.33830404 1.1505336 1.9080526e-38
0.10552191 -0.37703401 1.1319692 1.106132e-38
0.055634484 -0.33716127 1.1497371 1.9357111e-38
0.054247197 -0.37827671 1.1311306 9.217405e-39
0.0055336547 -0.33869818 1.1521043 1.9357471e-38
0.0051442864 -0.37715834 1.1326261 1.0323746e-38
0.15634534 -0.40033919 1.1185764 1.1891438e-38
0.10263442 -0.40201432 1.1217273 1.2352062e-38
0.15377876 -0.42485008 1.1084918 1.6592701e-38
0.1042193 -0.42581186 1.1117158 1.2352417e-38
0.057727218 -0.40147451 1.1188382 1.1890714e-38
0.0051644742 -0.40044588 1.1210902 1.2997783e-38
0.053682357 -0.42564476 1.1108818 1.4933896e-38
0.0053748065 -0.42755014 1.115872 1.2629001e-38
-0.044406064 -0.33811697 1.1536117 1.9726251e-38
-0.046313804 -0.3841233 1.1333656 1.3827537e-38
-0.094908319 -0.33834046 1.1559943 2.0740036e-38
-0.094430521 -0.3882131 1.1378722 1.9910995e-38
-0.067124613 -0.41558033 1.126 1.945038e-38
-0.099269882 -0.42165092 1.1267805 1.9081596e-38
-0.14564209 -0.339811 1.1566243 2.0002834e-38
-0.14592861 -0.38929683 1.1384891 1.9357824e-38
-0.19496599 -0.33770645 1.1564114 1.9449661e-38
-0.19509584 -0.38994622 1.1394215 1.8620622e-38
-0.1459621 -0.42682034 1.1269841 1.8620619e-38
-0.19454488 -0.42738101 1.1273767 1.7606832e-38
-0.04096267 -0.40473464 1.1217474 1.1799597e-38
-0.045305613 -0.427636 1.1171303 1.8344405e-38
-0.091356717 -0.43310517 1.12106 1.8620977e-38
-0.13992764 -0.43648908 1.122448 1.8252196e-38
-0.18719013 -0.44107291 1.1218234 1.6869624e-38
-0.24241844 0.052840192 1.3198659 2.2122969e-38
-0.24437352 0.012687691 1.3052351 2.2399557e-38
-0.29013994 0.051814739 1.3200548 2.1292121e-38
-0.29521719 0.013165942 1.3069321 2.1199925e-38
-0.2448009 -0.037254754 1.2855189 2.2492113e-38
-0.22783074 -0.061714612 1.273 2.2215169e-38
-0.25865841 -0.069538251 1.278 2.2123333e-38
-0.24330387 -0.088526599 1.2640119 2.1754188e-38
-0.29503259 -0.037862882 1.2866467 2.1292122e-38
-0.29549307 -0.067423895 1.278 2.1292495e-38
-0.29358411 -0.089903645 1.2645634 2.1108458e-38
-0.34357771 0.056624517 1.3174429 1.5853664e-38
-0.34194615 0.013292409 1.3028649 1.5484153e-38
-0.33959961 -0.037161734 1.2850438 1.6682332e-38
-0.3571392 -0.046988834 1.2706844 1.4102686e-38
-0.32603055 -0.068663292 1.278 1.825072e-38
-0.34478965 -0.089174844 1.2633691 1.6038056e-38
-0.24560082 -0.13979094 1.2439622 2.0279059e-38
-0.24512604 -0.17340167 1.2286441 1.9632972e-38
-0.29460514 -0.13936871 1.2443949 2.0094307e-38
-0.2930592 -0.17460032 1.2291906 1.898796e-38
-0.24374399 -0.19818711 1.2184023 1.7881256e-38
-0.29636145 -0.19784087 1.2196631 1.7881614e-38
-0.24540931 -0.23841509 1.1994178 1.760503e-38
-0.24428135 -0.27821478 1.18067 1.9449304e-38
-0.24318606 -0.30267081 1.1716497 1.9450024e-38
-0.29458812 -0.23775755 1.199574 1.7051856e-38
-0.29394549 -0.28047517 1.1816151 1.7974531e-38
-0.29554927 -0.30164465 1.1718384 1.78827e-38
-0.3438181 -0.1388929 1.2421206 1.5669996e-38
-0.34072834 -0.17226513 1.2317841 1.5484157e-38
-0.36013728 -0.15495521 1.2190001 1.382794e-38
-0.34492236 -0.19569016 1.2185162 1.4748044e-38
-0.34302482 -0.24030916 1.2017964 1.4471819e-38
-0.34163001 -0.28666019 1.1837299 1.4287428e-38
-0.3514621 -0.30402273 1.169812 1.2167664e-38
-0.2437167 -0.33811495 1.1594572 1.9357828e-38
-0.24467416 -0.38887867 1.1430814 1.8528788e-38
-0.29336876 -0.33843312 1.1603574 1.7698666e-38
-0.2945798 -0.38850853 1.1442237 1.6961462e-38
-0.24457702 -0.43135545 1.12832 1.7330965e-38
-0.29423299 -0.4288781 1.1291226 1.6040944e-38
-0.35329959 -0.33453235 1.1783334 8.7603827e-39
-0.34047496 -0.33406132 1.1683166 1.2260208e-38
-0.33511025 -0.39075214 1.1504477 1.198325e-38
-0.34058186 -0.42938325 1.1336325 9.956028e-39
-0.22914159 -0.44228512 1.1230001 1.6131349e-38
-0.29222247 -0.43859628 1.1230001 1.6040948e-38
-0.34752733 -0.4105351 1.123 3.2246947e-39
-0.35198766 -0.42297152 1.1224287 2.9480825e-39
-0.36214575 -0.41701633 1.138 2.7766449e-40
-0.33759731 -0.44519413 1.126 1.3645659e-38
-0.33266172 -0.44519413 1.1260002 1.1523693e-38
-0.32180327 -0.44519413 1.126 1.428993e-38
-0.17265424 -0.44144547 1.1190001 1.7422426e-38
-0.16971126 -0.44144547 1.1190001 1.7422059e-38
-0.092213064 -0.44144547 1.1190001 1.7976328e-38
-0.087308109 -0.44144553 1.1190001 1.797597e-38
0.052452721 -0.43710595 1.108 1.7331702e-38
0.062565073 -0.43699861 1.1065 1.7423543e-38
0.20758809 -0.43748426 1.1065 1.5764737e-38
0.21661031 -0.43613464 1.108 1.5854797e-38
0.36231232 -0.43710598 1.108 1.42878e-38
0.36716902 -0.43710595 1.108 1.4195968e-38
0.43785995 -0.43689123 1.105 1.3643514e-38
0.45245489 -0.43742859 1.10575 1.2998506e-38
0.50297087 -0.43565163 1.097 1.2352061e-38
0.50777936 -0.4356516 1.097 1.2444256e-38
0.53036755 -0.4210332 1.0940001 1.2352062e-38
0.53909737 -0.40602291 1.108 1.2720854e-38
0.56099212 -0.29212028 1.1530001 1.4011964e-38
0.56683075 -0.26758498 1.1650001 1.4472213e-38
0.56683075 -0.26247838 1.1650002 1.4288542e-38
0.5867793 -0.15224543 1.2060001 1.5026485e-38
0.59524179 -0.12182686 1.2190001 1.5303075e-38
0.61805701 0.0077812932 1.268 1.6039935e-38
0.62161016 0.02343593 1.273 1.6317238e-38
0.65079522 0.15949723 1.3280001 1.6043176e-38
0.65207696 0.1741209 1.3330001 1.5492166e-38
0.67311168 0.28830409 1.376 1.6229005e-38
0.68214047 0.31492761 1.3870001 1.6229732e-38
0.69050121 0.35694361 1.404 1.5307421e-38
0.69221604 0.36959389 1.4100001 1.6044973e-38
0.71066546 0.48011088 1.4450001 1.4756403e-38
0.72899306 0.51405013 1.4770001 1.4664923e-38
0.72000986 0.57312256 1.4960001 1.4204317e-38
0.68922567 0.59662336 1.5090001 1.4019201e-38
0.66541368 0.59662336 1.5090001 1.4386539e-38
0.5240795 0.59850502 1.5160002 1.4936076e-38
0.51195842 0.59662336 1.5090001 1.4843885e-38
0.40083566 0.59662336 1.5090001 1.4194549e-38
0.34313697 0.60215867 1.5230001 1.5025016e-38
0.20737024 0.60729855 1.536 1.5855105e-38
0.16823058 0.60215867 1.5230001 1.5392707e-38
0.060319051 0.60453093 1.529 1.3734978e-38
0.01211904 0.60999167 1.536 1.5762556e-38
-0.13211338 0.61186981 1.5430001 1.6223178e-38
-0.15285473 0.61141884 1.5430001 1.7053309e-38
-0.27720201 0.61555147 1.5500001 1.6221735e-38
-0.31803802 0.61696649 1.557 1.0971266e-38
-0.33805758 0.61651146 1.557 1.2351315e-38
-0.34650248 0.61555147 1.5500001 6.7276802e-39
-0.35521218 0.57236075 1.529 1.1064221e-38
-0.35707772 0.52178144 1.503 1.1340078e-38
-0.34785432 0.51782858 1.503 9.6787012e-39
-0.3471258 0.45763403 1.483 4.237357e-39
-0.34701622 0.43247545 1.4770001 7.7393602e-39
-0.35596612 0.36863396 1.4450001 1.2996376e-38
-0.34652793 0.32275885 1.427 5.9868893e-39
-0.34775788 0.22859609 1.3870001 5.5270014e-39
-0.35706282 0.19421323 1.376 1.4380726e-38
-0.35103136 0.18456288 1.376 5.8017792e-39
-0.35728902 0.1412538 1.3540001 1.4750225e-38
-0.35320902 0.11302688 1.3430001 1.0598148e-38
-0.35120437 0.072569296 1.3280001 6.2627658e-39
-0.36046693 -0.063611813 1.273 1.4842424e-38
-0.36046693 -0.072539791 1.273 1.4750585e-38
-0.36637214 -0.10232015 1.2550001 1.4196705e-38
-0.36190903 -0.1462806 1.2360001 1.4474732e-38
-0.36203265 -0.25709563 1.197 1.244606e-38
-0.35752836 -0.26788568 1.189 6.358595e-39
-0.36421114 -0.33556521 1.1670001 1.1802145e-38
-0.36214575 -0.41701633 1.138 2.7766449e-40
