# .PCD v0.7 - Point Cloud Data file format
VERSION 0.7
FIELDS x y z rgb
SIZE 4 4 4 4
TYPE F F F F
COUNT 1 1 1 1
WIDTH 182
HEIGHT 1
VIEWPOINT 0 0 0 1 0 0 0
POINTS 182
DATA ascii
0.83405244 -0.13476208 1.698143 1.9393789e-39
0.82203758 -0.14321402 1.6670001 2.9535392e-39
0.81257254 -0.14086515 1.6835556 1.8471832e-39
0.79379803 -0.14810987 1.6514008 2.5847511e-39
0.79442829 -0.1570823 1.6240003 3.3208882e-39
0.78118771 -0.16354804 1.602827 3.2294086e-39
0.75835192 -0.15234119 1.6374223 2.0304969e-39
0.76453048 -0.15447217 1.6240001 2.9535322e-39
0.74526048 -0.16462296 1.5990686 3.0450075e-39
0.74190933 -0.18073362 1.5489082 3.5063514e-39
0.70322996 -0.17201291 1.5907645 3.5049011e-39
0.69672048 -0.18121183 1.5480301 3.875127e-39
0.66630048 -0.17769876 1.5762 3.1364843e-39
0.64960545 -0.18731685 1.543197 4.150632e-39
0.60735554 -0.19398004 1.526 3.3212077e-39
0.73117763 -0.19527996 1.5060462 3.59891e-39
0.721672 -0.2049033 1.47 3.7822167e-39
0.72000986 -0.20791727 1.4640001 3.5070717e-39
0.69285387 -0.19669336 1.50099 3.9676855e-39
0.71444303 -0.20447236 1.4731113 3.7829369e-39
0.68971503 -0.20692401 1.4748939 4.1520782e-39
0.69383913 -0.21334331 1.4528643 3.9673282e-39
0.68012828 -0.23029482 1.4024005 3.967331e-39
0.64481717 -0.19808298 1.5043073 4.5201376e-39
0.64840001 -0.20792921 1.4786501 4.6126906e-39
0.64554262 -0.21460471 1.4517578 4.6130493e-39
0.59990674 -0.19987816 1.5018629 4.426856e-39
0.59354484 -0.20919499 1.4766501 5.0722282e-39
0.59688509 -0.21685618 1.4504458 5.1651427e-39
0.64683211 -0.23075674 1.4010742 4.520139e-39
0.64259714 -0.24662161 1.3513016 4.2439151e-39
0.59424686 -0.23287211 1.4005014 5.2584173e-39
0.59522372 -0.24806598 1.3557074 5.0736687e-39
0.56530643 -0.20474213 1.4912143 3.5967436e-39
0.55492795 -0.20976417 1.4779402 4.4272035e-39
0.54547822 -0.22024012 1.4464986 5.2573355e-39
0.50258327 -0.22520339 1.4380152 4.8889117e-39
0.54427058 -0.23443726 1.4010383 5.626481e-39
0.54572242 -0.24887443 1.3571914 5.8105107e-39
0.49628952 -0.23493421 1.4009401 5.6264782e-39
0.49562213 -0.2495627 1.3601096 6.087099e-39
0.45001405 -0.24028052 1.3924221 5.1647714e-39
0.44559518 -0.25027215 1.3593639 5.9023476e-39
0.41496491 -0.24970272 1.376 4.6116018e-39
0.40312853 -0.25249827 1.3566707 4.7030771e-39
0.65079522 -0.26020169 1.3280001 4.2446311e-39
0.59508735 -0.2572034 1.3262401 4.7052478e-39
0.54389745 -0.2574904 1.3301765 5.7190381e-39
0.49579653 -0.25844666 1.3319615 6.0874591e-39
0.44421089 -0.25844309 1.3316818 6.0871018e-39
0.39302561 -0.26059768 1.3341205 5.4409995e-39
0.62918144 -0.2627148 1.2984259 4.2435563e-39
0.59453285 -0.2647655 1.2974479 4.336824e-39
0.59219468 -0.28000936 1.2488029 3.9680471e-39
0.58038723 -0.29440299 1.2031618 4.0598839e-39
0.57133281 -0.3067939 1.1756668 4.4279462e-39
0.54450065 -0.2670716 1.2970085 5.2580614e-39
0.54455245 -0.28160948 1.2456082 4.5208579e-39
0.49616024 -0.26796013 1.3001549 5.9956222e-39
0.49342149 -0.28291392 1.2481724 5.3506144e-39
0.54491407 -0.29640099 1.1982572 4.3371869e-39
0.52885044 -0.30528927 1.1639143 4.5204992e-39
0.54221284 -0.31260872 1.146271 4.3368282e-39
0.49525735 -0.29866165 1.1977444 5.074389e-39
0.49574175 -0.31518793 1.1459407 4.9821934e-39
0.44536582 -0.26828706 1.2992274 6.1792974e-39
0.44380957 -0.2847653 1.2454299 5.9037853e-39
0.39708525 -0.27126566 1.2981095 5.994539e-39
0.3957397 -0.28649238 1.2489654 6.2714861e-39
0.44524777 -0.29898024 1.2020074 5.8119484e-39
0.44798386 -0.30754685 1.1748455 5.8115911e-39
0.44426522 -0.31655788 1.146849 5.8119512e-39
0.39485577 -0.29933551 1.2008539 6.364402e-39
0.39505905 -0.30767444 1.1754342 6.4562417e-39
0.39557633 -0.31640434 1.1476543 6.456599e-39
0.53016031 -0.32462063 1.1052074 4.3368268e-39
0.49473643 -0.32968125 1.0989136 4.7981622e-39
0.49258009 -0.34192842 1.054136 4.5215768e-39
0.48592848 -0.35086903 1.0192158 4.3379002e-39
0.47564355 -0.35900658 0.99488038 4.4300986e-39
0.47032318 -0.3627708 0.97366667 4.3382673e-39
0.44669992 -0.33256659 1.09569 5.5357245e-39
0.44558433 -0.34734911 1.046059 5.3516906e-39
0.39461422 -0.33220881 1.0987774 6.3647621e-39
0.39487207 -0.34742829 1.0526816 6.3644048e-39
0.46494898 -0.35625157 1.0142503 4.705968e-39
0.3948625 -0.35733292 1.0248964 6.1807324e-39
0.44495097 -0.36090034 0.99588132 4.9829108e-39
0.44369686 -0.37030053 0.95558548 4.6141297e-39
0.3955996 -0.36490086 0.99592441 5.9966998e-39
0.39898512 -0.37375706 0.95956725 5.6279187e-39
0.35982984 -0.26443404 1.3294741 4.9796584e-39
0.34627783 -0.27495489 1.2961527 5.7183067e-39
0.3457422 -0.28891966 1.2484109 6.271842e-39
0.30203506 -0.27995014 1.2814618 5.0722142e-39
0.29482791 -0.29113874 1.2454512 6.0867263e-39
0.34721127 -0.30125341 1.2051572 6.6402672e-39
0.34290799 -0.30955315 1.1803131 6.7324656e-39
0.34438747 -0.31925631 1.1443697 6.8253801e-39
0.29220682 -0.30220953 1.2078149 6.5480673e-39
0.29488745 -0.31013554 1.1854153 6.7324586e-39
0.29444957 -0.32165825 1.1465372 6.9172114e-39
0.25137925 -0.29255655 1.2364736 5.4417086e-39
0.21750362 -0.3008115 1.2246002 4.8881592e-39
0.25005949 -0.30171055 1.2127455 6.2707588e-39
0.24270013 -0.30970603 1.1889732 6.4555088e-39
0.24456003 -0.32114613 1.148908 6.7328145e-39
0.21084407 -0.30312186 1.2119533 4.9803689e-39
0.19639954 -0.31033561 1.185482 5.810131e-39
0.1948047 -0.32254872 1.1474302 6.4555046e-39
0.34380487 -0.33373481 1.098101 6.9175757e-39
0.34607476 -0.34813637 1.0486671 6.8257402e-39
0.29618645 -0.33559698 1.098593 7.1019614e-39
0.29520082 -0.34889004 1.0514976 7.1019642e-39
0.3150177 -0.35555285 1.0237501 7.00977e-39
0.32528552 -0.35673434 1.0250001 6.8264577e-39
0.28505149 -0.35664117 1.0247747 7.1019628e-39
0.3450135 -0.36456609 0.99846101 6.641349e-39
0.34223565 -0.37607628 0.96396852 6.5495121e-39
0.29431662 -0.3649843 0.99766219 7.0104902e-39
0.29592127 -0.37707821 0.96356809 7.010493e-39
0.24373701 -0.3358084 1.0996947 7.1012397e-39
0.24683182 -0.35010347 1.0530211 7.1941542e-39
0.19428812 -0.33808124 1.1011535 6.732453e-39
0.19568692 -0.34988105 1.0547082 6.9175645e-39
0.24345326 -0.35807052 1.0282258 7.2867086e-39
0.19387677 -0.35869634 1.0266923 7.1019558e-39
0.24591303 -0.36560482 1.0009698 7.2863554e-39
0.24577135 -0.37847278 0.96437824 7.2870757e-39
0.19604507 -0.36697197 0.99818981 7.1941528e-39
0.19400609 -0.37824628 0.96301544 7.2867114e-39
0.16219462 -0.31542501 1.1776224 4.7963322e-39
0.14801098 -0.32503679 1.1443999 5.5342629e-39
0.1112179 -0.32923216 1.1311138 4.6112234e-39
0.037081249 -0.33889741 1.1750001 6.7313544e-39
0.047649149 -0.33639598 1.156654 3.7800222e-39
0.14550044 -0.33959657 1.1009933 6.087078e-39
0.14414813 -0.35044584 1.059399 6.1796351e-39
0.095554575 -0.33972785 1.0979458 5.0722044e-39
0.09532389 -0.35158679 1.0588197 5.3491528e-39
0.14590174 -0.35887018 1.0314031 6.364025e-39
0.094600469 -0.36005718 1.0297179 5.3502304e-39
0.14388426 -0.3683764 1.000941 6.456222e-39
0.14610463 -0.37871194 0.96638268 6.6409776e-39
0.09438365 -0.37134105 0.99579239 5.4424274e-39
0.094489336 -0.38038927 0.96713293 5.5353447e-39
0.055223927 -0.3418183 1.0859134 3.0435292e-39
0.045884963 -0.35229322 1.0614865 4.2417206e-39
0.0072362847 -0.3546052 1.0532351 2.8594896e-39
0.044651538 -0.36014476 1.0328166 4.5197495e-39
-0.0029953804 -0.36017719 1.0311391 3.4126746e-39
0.046175495 -0.37034705 0.9972856 4.7963378e-39
0.045377385 -0.37955403 0.96906811 4.8892579e-39
-0.0056177829 -0.37150943 0.99710423 4.242801e-39
-0.0075136316 -0.380784 0.96868008 4.6119465e-39
-0.035017926 -0.3594 1.0244001 0
-0.050921649 -0.37151042 0.99331403 2.8591393e-39
-0.054512616 -0.38096213 0.96849936 3.966217e-39
-0.088210054 -0.37613311 0.97825342 1.3840036e-39
-0.097900815 -0.38003799 0.96858132 1.7531519e-39
0.8415255 -0.13302979 1.705 1.7567771e-39
0.82518882 -0.13530123 1.6960001 2.0290592e-39
0.80788225 -0.14210182 1.6826668 1.4794839e-39
0.66222942 -0.18073469 1.57375 3.4127097e-39
0.62900394 -0.18802483 1.5430001 2.9538951e-39
0.41496491 -0.24970272 1.376 4.6116018e-39
0.39561248 -0.25201449 1.365 3.3212189e-39
0.1658944 -0.31330866 1.1842 4.427544e-39
0.039067596 -0.33647749 1.1666001 6.6391643e-39
0.015133562 -0.35262114 1.0629047 2.9516839e-39
-0.073753089 -0.38148153 0.96700013 3.5974302e-39
-0.068666667 -0.3814815 0.96700007 3.689993e-39
0.35495216 -0.37808782 0.95694733 6.3647677e-39
0.39725205 -0.37483251 0.9472 5.6279215e-39
0.46059453 -0.36495018 0.95700002 4.5219201e-39
0.47032318 -0.3627708 0.97366667 4.3382673e-39
0.57133281 -0.3067939 1.1756668 4.4279462e-39
0.58105201 -0.29733819 1.1956668 4.0598854e-39
0.69178647 -0.22508709 1.4133334 3.9669709e-39
0.7037214 -0.22156259 1.4360001 3.874778e-39
0.71517819 -0.21333057 1.4571431 3.7829425e-39
0.83165509 -0.13762264 1.6880001 2.5847525e-39
