# .PCD v0.7 - Point Cloud Data file format
VERSION 0.7
FIELDS x y z rgb
SIZE 4 4 4 4
TYPE F F F F
COUNT 1 1 1 1
WIDTH 607
HEIGHT 1
VIEWPOINT 0 0 0 1 0 0 0
POINTS 607
DATA ascii
0.55517983 0.48957393 1.2946126 1.1067832e-38
0.53350455 0.48227257 1.2853472 1.1897596e-38
0.51249516 0.4848415 1.2667483 1.180576e-38
0.47839928 0.47903043 1.2408537 1.198943e-38
0.45362872 0.47573954 1.2195289 1.1897952e-38
0.42811856 0.47011104 1.1960455 1.2174537e-38
0.55600578 0.43889958 1.3060702 1.0975275e-38
0.56209499 0.37784624 1.3330001 1.1250782e-38
0.55637723 0.39064464 1.3217384 1.1343337e-38
0.55754828 0.33974111 1.3388227 1.1435533e-38
0.55478001 0.35718715 1.3280001 1.1158946e-38
0.55534726 0.28697494 1.352936 1.1527007e-38
0.52829427 0.43571174 1.2911347 1.2081987e-38
0.51948917 0.3870154 1.29723 1.2726998e-38
0.48814732 0.37229669 1.2830001 1.3096844e-38
0.50331533 0.4434455 1.2699096 1.2358575e-38
0.49416929 0.39897323 1.2746342 1.2911746e-38
0.47153002 0.4390626 1.2455689 1.2173821e-38
0.44865233 0.44147092 1.2229911 1.2358211e-38
0.46682462 0.38955024 1.2539152 1.2542959e-38
0.44333568 0.40044644 1.2241042 1.2726993e-38
0.53872305 0.32253265 1.3330001 1.290958e-38
0.51304585 0.33948344 1.3074999 1.2542604e-38
0.53026539 0.28711712 1.3383638 1.2725913e-38
0.50591749 0.29329035 1.316063 1.2634798e-38
0.4847385 0.33560985 1.2854515 1.272663e-38
0.47519609 0.28569344 1.2910429 1.3002856e-38
0.46026459 0.34279272 1.260566 1.2911022e-38
0.45305139 0.29300675 1.268768 1.3002854e-38
0.5605433 0.22155383 1.381 1.1341548e-38
0.55748188 0.18948518 1.3875489 1.1066027e-38
0.55619323 0.13975202 1.4031899 1.0789079e-38
0.56406224 0.07914459 1.4330001 9.5912574e-39
0.55712742 0.089864597 1.4175574 9.9593211e-39
0.53743666 0.18312351 1.381 1.2172379e-38
0.52916098 0.13834983 1.3860503 1.1895433e-38
0.52167928 0.089752942 1.3952088 1.1434814e-38
0.55478036 0.24081337 1.3677741 1.1434814e-38
0.5606916 0.20629099 1.3746213 1.0143717e-38
0.52049494 0.2368127 1.3458389 1.2634079e-38
0.49820849 0.24564895 1.324327 1.2726635e-38
0.51282471 0.19077337 1.3569767 1.2357486e-38
0.46865124 0.23876107 1.3003757 1.2818466e-38
0.48485526 0.18179771 1.3358202 1.2449322e-38
0.46093178 0.1912448 1.3101211 1.2909937e-38
0.44672319 0.25346962 1.276476 1.3095046e-38
0.50639105 0.142059 1.3667161 1.2080182e-38
0.49751484 0.095251016 1.3699796 1.1803236e-38
0.47597915 0.13564853 1.3427303 1.2264926e-38
0.45166826 0.14622489 1.3173581 1.2725186e-38
0.46726283 0.087828889 1.3480206 1.1987622e-38
0.4464356 0.099176757 1.3260144 1.2448597e-38
0.41971454 0.43787298 1.196545 1.2726989e-38
0.43904167 0.37801868 1.2320001 1.3095406e-38
0.41476509 0.38967195 1.2047267 1.3095772e-38
0.38236204 0.37468514 1.1838069 1.3740424e-38
0.43258831 0.33713675 1.2373601 1.3187969e-38
0.40620902 0.34078655 1.2131591 1.3740418e-38
0.42312434 0.28777555 1.2448621 1.3556025e-38
0.39870977 0.29081094 1.2217827 1.4292873e-38
0.37814096 0.33621487 1.1911448 1.4292872e-38
0.36880031 0.28815928 1.197284 1.475349e-38
0.43978247 0.2238279 1.2830002 1.3554944e-38
0.42885932 0.18366918 1.2868829 1.3554945e-38
0.41374546 0.23869842 1.2545058 1.3924088e-38
0.40739441 0.19285665 1.2647848 1.419995e-38
0.38654855 0.23255712 1.2346114 1.4476896e-38
0.36239693 0.24122596 1.2092373 1.5214102e-38
0.37673792 0.18649805 1.2402089 1.4845319e-38
0.35402691 0.19293016 1.2181776 1.5398133e-38
0.42276046 0.13943397 1.2962577 1.3370194e-38
0.41452754 0.091281816 1.3041562 1.3277995e-38
0.38686651 0.084269248 1.283875 1.3646775e-38
0.39928254 0.1453391 1.2741939 1.4199949e-38
0.36848921 0.13904639 1.2498329 1.4844958e-38
0.34589165 0.1488895 1.2249737 1.5582883e-38
0.36280018 0.091557547 1.2607834 1.4568368e-38
0.33099559 0.23338424 1.1869694 1.5952023e-38
0.32271332 0.18669839 1.1941159 1.6227529e-38
0.31469733 0.13970195 1.2045512 1.6504112e-38
0.33058566 0.083640091 1.2362309 1.5306288e-38
0.30740979 0.092288382 1.2129394 1.6227522e-38
0.28443086 0.12786928 1.183184 1.7057282e-38
0.27902055 0.085341528 1.1904792 1.705692e-38
0.39672139 0.44562003 1.1728824 1.3187967e-38
0.3910661 0.40241629 1.177 1.3002489e-38
0.3675535 0.43524361 1.1534661 1.3557467e-38
0.36209789 0.39145523 1.1598899 1.3924449e-38
0.35419822 0.34334445 1.1681446 1.4753847e-38
0.34443638 0.29440421 1.1741197 1.5214105e-38
0.33628875 0.42519265 1.131 1.4109558e-38
0.31773171 0.42928061 1.1134018 1.4109919e-38
0.33303148 0.38877261 1.1370356 1.4293232e-38
0.30878419 0.390553 1.1156805 1.48464e-38
0.28137475 0.42029116 1.08358 1.475457e-38
0.279744 0.38961938 1.091067 1.5214822e-38
0.26658425 0.42051512 1.0707999 1.5215538e-38
0.25468934 0.39589027 1.0677897 1.5584682e-38
0.32462335 0.33767101 1.1447755 1.5399215e-38
0.30029234 0.34249362 1.1210252 1.5491771e-38
0.31606621 0.28763047 1.1539248 1.5859471e-38
0.29433984 0.30853924 1.1288071 1.61357e-38
0.27036768 0.33835578 1.0980542 1.6505558e-38
0.28531167 0.27425715 1.1313334 1.6597392e-38
0.26445973 0.28988814 1.1089826 1.6965812e-38
0.24566568 0.34817183 1.0724406 1.6689589e-38
0.30888331 0.24224718 1.1631777 1.6412641e-38
0.29900479 0.19335112 1.1714215 1.6596671e-38
0.2779496 0.23361531 1.1408309 1.7241677e-38
0.25577363 0.24342464 1.116123 1.7703013e-38
0.27182123 0.18586621 1.1496174 1.7610457e-38
0.24852893 0.19650525 1.1236006 1.7887401e-38
0.29200977 0.15993468 1.177 1.8993006e-38
0.26157516 0.14161389 1.156354 1.7886678e-38
0.24184604 0.16485016 1.126 1.8531327e-38
0.2542538 0.092928618 1.1652181 1.7702287e-38
0.85154307 -0.065892532 1.7311634 4.4286707e-39
0.84251177 -0.06960427 1.7220001 4.5208691e-39
0.8550176 -0.1111998 1.7434493 3.8758584e-39
0.84085834 -0.13133694 1.7220001 1.8482706e-39
0.81619257 -0.070440874 1.7017201 4.5208649e-39
0.83709651 -0.11122084 1.7310002 4.5219453e-39
0.81339055 -0.11097562 1.7078112 4.6130633e-39
0.78874052 -0.069551229 1.6880001 3.8754941e-39
0.7853269 -0.11515894 1.6853334 4.9818459e-39
0.76907581 -0.07921271 1.6622503 4.7045303e-39
0.76187903 -0.10913787 1.6633443 5.0747575e-39
0.73481792 -0.081314921 1.6335557 4.2439137e-39
0.72761488 -0.11240847 1.6386936 5.3506228e-39
0.70235533 -0.1114042 1.6170212 5.5346553e-39
0.67541039 -0.11613352 1.5951587 5.8105191e-39
0.8096481 -0.1385489 1.7011299 2.7684319e-39
0.7816897 -0.14153598 1.6847409 3.9673324e-39
0.75715309 -0.14744234 1.6630526 3.7829411e-39
0.72014493 -0.15360896 1.6402181 4.6130549e-39
0.70245749 -0.16260101 1.6205837 4.0591609e-39
0.66541868 -0.16303346 1.5980923 5.5339308e-39
0.64542055 -0.18603463 1.5860001 4.7038058e-39
0.64102739 -0.083587244 1.5546668 5.5342882e-39
0.65171051 -0.10631647 1.5711845 5.8108764e-39
0.64418089 -0.16150995 1.5781252 5.4417282e-39
0.64560771 -0.18786499 1.5680001 3.5041598e-39
0.55789042 0.039915271 1.4338938 8.2997983e-39
0.55920047 0.048652541 1.4254283 7.9310158e-39
0.55522645 -0.010813445 1.4461168 7.4696705e-39
0.6240344 -0.080839477 1.5383334 5.2584243e-39
0.60217512 -0.076417267 1.5126798 5.5335665e-39
0.62305719 -0.11181174 1.5472506 6.1789387e-39
0.5988794 -0.10496044 1.5246357 6.1792988e-39
0.57440209 -0.075229332 1.4922099 6.1782128e-39
0.56773728 -0.11276998 1.5022268 6.8243081e-39
0.55547512 -0.057979837 1.4648216 6.8235822e-39
0.5444777 -0.10016268 1.4739375 7.1934564e-39
0.51625258 0.040099367 1.4053216 1.078908e-38
0.53370303 -0.011566265 1.4369528 9.2217588e-39
0.50708097 -0.0085490933 1.4098359 9.7756487e-39
0.48617315 0.028796811 1.381 1.0973107e-38
0.47898504 -0.016032899 1.3878074 9.8674786e-39
0.52356106 -0.06111744 1.4455452 8.2998025e-39
0.49987236 -0.055175427 1.4197853 8.8529735e-39
0.51620197 -0.11160026 1.4520299 7.7462672e-39
0.49560395 -0.089836456 1.4259546 8.1154071e-39
0.46917143 -0.06398081 1.3959084 9.0370032e-39
0.48701143 -0.12772012 1.4330001 7.9306585e-39
0.4631846 -0.11019211 1.4076711 8.2994368e-39
0.4909614 0.054283202 1.3760002 1.1342253e-38
0.46481317 0.044189822 1.3577007 1.1434447e-38
0.45568419 -0.0048069446 1.364269 1.0604323e-38
0.4451766 -0.048289295 1.3710333 9.5901742e-39
0.61395526 -0.15827852 1.555672 6.4558829e-39
0.59112668 -0.14208487 1.529 6.8243137e-39
0.61357278 -0.19121523 1.5561789 4.7963644e-39
0.58126366 -0.17598112 1.5374001 6.7317523e-39
0.56216902 -0.15957224 1.5119256 7.0090623e-39
0.58305055 -0.19239561 1.5383334 6.3636901e-39
0.56281465 -0.20273703 1.5125648 5.2566251e-39
0.53158134 -0.16533481 1.4870454 7.2856492e-39
0.52318096 -0.20138846 1.4913098 6.8239494e-39
0.50721484 -0.15663268 1.4611174 7.5618773e-39
0.50464368 -0.2102434 1.4671271 5.994546e-39
0.47963512 -0.16424082 1.4395837 7.6537114e-39
0.45624501 -0.15807512 1.4153184 7.746263e-39
0.46983945 -0.2136908 1.4444214 6.5473569e-39
0.44895613 -0.20497099 1.4236705 6.8235822e-39
0.45414406 -0.2352456 1.4350001 5.1655014e-39
0.44793952 -0.2369833 1.4174446 4.3346576e-39
0.43895674 -0.081807151 1.381 9.1291806e-39
0.43268311 -0.11571978 1.3845557 8.4834679e-39
0.4332763 0.032219518 1.3364104 1.1987262e-38
0.4116137 0.042867467 1.3141736 1.254043e-38
0.42663765 -0.010586573 1.3404708 1.1618114e-38
0.4021081 -0.003692609 1.3199652 1.2171286e-38
0.37886143 0.038161494 1.2897919 1.3277632e-38
0.36956286 -0.012757579 1.2962424 1.263226e-38
0.35507402 0.044057336 1.2691388 1.4107389e-38
0.34665653 0.00037478947 1.2750152 1.3554209e-38
0.41751334 -0.060473774 1.352846 1.0235179e-38
0.3926034 -0.043215457 1.3266668 1.1341532e-38
0.4086768 -0.10658267 1.360613 9.1284744e-39
0.38732776 -0.075403929 1.3337408 1.0419564e-38
0.36291221 -0.059061818 1.307219 1.1525552e-38
0.380512 -0.11361911 1.3390518 9.4976128e-39
0.35744596 -0.10550777 1.3168175 1.0142981e-38
0.32490823 0.037387855 1.2437562 1.4752757e-38
0.30023548 0.043148067 1.2190357 1.6043491e-38
0.31709754 -0.010820715 1.2524641 1.419922e-38
0.29515648 0.0037418606 1.2270002 1.5859096e-38
0.27138469 0.038782798 1.1960458 1.6411911e-38
0.28587455 -0.030056477 1.2338574 1.4383614e-38
0.26450101 -0.0093935719 1.2045252 1.5582147e-38
0.33271205 -0.066096306 1.285437 1.1986889e-38
0.32531151 -0.11100977 1.2932335 1.088018e-38
0.31091383 -0.058136329 1.2630949 1.2816647e-38
0.29886267 -0.10925589 1.2702062 1.1801415e-38
0.28023034 -0.063215122 1.2371542 1.3462015e-38
0.25696751 -0.056056656 1.2138982 1.4383963e-38
0.27182543 -0.11219756 1.2454528 1.1986521e-38
0.24839696 -0.10540608 1.2221476 1.2816639e-38
0.42395371 -0.16335727 1.3918889 7.9299326e-39
0.41632491 -0.21174964 1.4030939 7.1923648e-39
0.38640764 -0.22175562 1.381 7.1923662e-39
0.41385078 -0.24486554 1.400455 4.7949168e-39
0.38161269 -0.24453716 1.3827502 6.1785702e-39
0.39894232 -0.15576474 1.3685237 8.2987123e-39
0.39232793 -0.19887832 1.3748751 7.5615102e-39
0.36901867 -0.16173212 1.3462342 8.5752978e-39
0.34582758 -0.15498811 1.3240782 9.1277527e-39
0.3632651 -0.20869879 1.3557185 7.561506e-39
0.39612973 -0.25052801 1.3726001 3.0442761e-39
0.35939342 -0.25488183 1.3575095 5.2558936e-39
0.34292218 -0.27085316 1.3260001 5.3494947e-39
0.31728095 -0.15936351 1.3020829 9.4968912e-39
0.33534059 -0.21616645 1.3363751 7.7455399e-39
0.31187516 -0.20714419 1.3110075 8.1143168e-39
0.28876424 -0.17553806 1.2830001 9.4972471e-39
0.2820445 -0.21767253 1.2883141 8.2983424e-39
0.29375452 -0.1492857 1.2777369 1.041848e-38
0.26412532 -0.15898563 1.2556775 1.0511752e-38
0.25900289 -0.20819135 1.2650832 8.8515175e-39
0.32528126 -0.25650045 1.3387179 6.6384665e-39
0.30706844 -0.26264188 1.3158799 5.9012602e-39
0.2744737 -0.26320159 1.294214 6.9150506e-39
0.25870344 -0.28751972 1.286925 5.1640581e-39
0.25057951 -0.2572248 1.2715912 7.3760231e-39
0.25252718 -0.28942853 1.265862 3.8729507e-39
0.24710177 0.04305581 1.172888 1.7241667e-38
0.24093387 0.0077387751 1.177 1.6873601e-38
0.22258067 0.38755581 1.0434734 1.5952745e-38
0.19967467 0.38946629 1.0226467 1.641372e-38
0.16770501 0.38083664 0.99862063 1.6966891e-38
0.23502187 0.27904943 1.0848843 1.7611535e-38
0.21685612 0.33869779 1.0506307 1.7242759e-38
0.19175516 0.34683648 1.0274183 1.7243116e-38
0.21208952 0.29071513 1.0627249 1.79796e-38
0.18704864 0.32943189 1.0312145 1.7887764e-38
0.16411528 0.33935124 1.0072058 1.7611537e-38
0.17986341 0.28667066 1.0370425 1.8440574e-38
0.15720254 0.2911461 1.0170163 1.9177777e-38
0.13320279 0.33330715 0.98443902 1.8440574e-38
0.12598605 0.28694218 0.99199104 1.9638755e-38
0.14266938 0.38042009 0.9755584 1.678214e-38
0.11768421 0.3721666 0.95704246 1.7243474e-38
0.1088804 0.33990586 0.96102691 1.8440934e-38
0.10052306 0.29285282 0.96785164 1.9546558e-38
0.083337389 0.33711967 0.93803608 1.8624965e-38
0.060799737 0.34273684 0.91661638 1.8349095e-38
0.072390758 0.28753382 0.94316202 1.9915338e-38
0.050504345 0.29444423 0.92420739 1.9823138e-38
0.22732911 0.23393854 1.0940149 1.8256181e-38
0.21645036 0.18771113 1.100397 1.8901189e-38
0.20423609 0.24265857 1.0708216 1.8624603e-38
0.19301847 0.20134723 1.0746765 1.9361805e-38
0.16997311 0.2381174 1.0427018 1.9730948e-38
0.14697424 0.2450708 1.0234017 1.9638392e-38
0.16510327 0.1896686 1.0562552 2.0191202e-38
0.14216639 0.20705377 1.028 2.0283759e-38
0.23342685 0.12947272 1.1370906 1.8439848e-38
0.21284209 0.14095131 1.113242 1.9085217e-38
0.22789124 0.087371312 1.1436406 1.8163259e-38
0.20259802 0.091449469 1.1196645 1.8993019e-38
0.18142168 0.13958287 1.0873774 2.0007168e-38
0.17395639 0.088071734 1.0961702 2.0099363e-38
0.15650325 0.14004043 1.0657383 2.0652537e-38
0.14907433 0.094889022 1.0745952 2.0744373e-38
0.11764796 0.23945959 0.99997675 2.0375594e-38
0.13340612 0.17544486 1.0343287 2.1020958e-38
0.11271144 0.19067484 1.0094306 2.102132e-38
0.082365938 0.18007368 0.98518044 2.1666329e-38
0.12742989 0.13705443 1.0407082 2.1205351e-38
0.10209151 0.1396655 1.0155942 2.1666328e-38
0.11828975 0.088990852 1.0488822 2.1390098e-38
0.096620396 0.096426703 1.0244027 2.1942912e-38
0.07582093 0.13873026 0.99158227 2.2127304e-38
0.067021474 0.090635993 1.0011492 2.2219494e-38
0.094278216 0.2482217 0.97610885 2.092913e-38
0.066252604 0.23918131 0.95374215 2.102132e-38
0.060874153 0.19142945 0.96345264 2.1666328e-38
0.050962757 0.14453152 0.9713937 2.1574121e-38
0.041325714 0.10785841 0.9780001 1.6321809e-38
0.026704358 0.33366439 0.89603513 1.7427495e-38
0.017606527 0.28841347 0.90127361 1.8994098e-38
0.00042116549 0.33268216 0.87049901 1.8257258e-38
-0.0065000132 0.29893261 0.87553197 1.9178853e-38
-0.024195908 0.32466996 0.84574455 1.8718246e-38
-0.050283018 0.32152995 0.82316369 1.5768344e-38
-0.032556877 0.28910416 0.85313028 1.9639478e-38
-0.055008378 0.30280614 0.8249951 1.8625686e-38
-0.068103194 0.32097089 0.8102001 1.4203546e-38
-0.061622828 0.2739743 0.83220011 2.0377401e-38
-0.084533729 0.28957495 0.80288512 1.8441297e-38
-0.11395707 0.27433217 0.7819168 1.7887754e-38
0.037660372 0.080575645 0.98473275 1.9731597e-38
0.033498708 0.22824869 0.93335712 1.8164334e-38
0.013268794 0.24152783 0.91087788 2.0007526e-38
0.027433813 0.18759625 0.94040143 2.0100078e-38
0.0042761764 0.19330548 0.91760832 2.1297542e-38
-0.016791953 0.23384127 0.8866756 2.0744373e-38
-0.024292611 0.18701537 0.89505488 2.1574488e-38
-0.039636072 0.24272896 0.86242598 2.0560342e-38
-0.047504451 0.19471306 0.87068444 2.1574128e-38
0.020630028 0.13913094 0.94915503 2.1205701e-38
-0.0039399359 0.1432863 0.92648625 2.2127299e-38
0.013062954 0.090805851 0.95727319 2.2127655e-38
-0.031681713 0.13819149 0.90278941 2.2403887e-38
-0.017275764 0.080423959 0.93448991 2.268047e-38
-0.039700601 0.090980478 0.91080528 2.2864862e-38
-0.055070817 0.15350915 0.87771982 2.2311691e-38
-0.069572859 0.23734204 0.83905667 2.0744731e-38
-0.093423836 0.244013 0.81440157 2.083693e-38
-0.078183547 0.18804373 0.84657943 2.1574488e-38
-0.10178439 0.19420868 0.82294619 2.1297901e-38
-0.1210733 0.23775998 0.79077142 2.0468509e-38
-0.12846644 0.18962689 0.80026764 2.1113151e-38
-0.06247716 0.12426639 0.88105565 2.2773025e-38
-0.067933388 0.08556243 0.88771671 2.3049254e-38
-0.085427873 0.14071441 0.85533214 2.2495721e-38
-0.10925575 0.15867521 0.82900012 2.221949e-38
-0.091492943 0.091641136 0.86483473 2.2957058e-38
-0.11470494 0.13297056 0.83329624 2.2311691e-38
-0.13739397 0.14183298 0.80742663 2.1850713e-38
-0.12134293 0.087485783 0.83974534 2.2864861e-38
-0.14457493 0.091307811 0.8155545 2.2496083e-38
-0.10821651 0.30090731 0.77740306 1.7243118e-38
-0.13299429 0.2850025 0.75956595 1.7335669e-38
-0.14390709 0.24257596 0.76676869 2.0099731e-38
-0.15383159 0.19428675 0.77525824 2.0560337e-38
-0.16592392 0.12816425 0.78539985 2.1666322e-38
-0.17273527 0.087251887 0.7925142 2.21273e-38
-0.16372743 0.27752179 0.73599291 1.8533492e-38
-0.18729185 0.27614188 0.71549302 1.687469e-38
-0.22022493 0.26970646 0.69012505 1.7612251e-38
-0.24180782 0.267279 0.6746195 1.6690643e-38
-0.1733571 0.23636653 0.74291092 1.9454363e-38
-0.19653942 0.24379137 0.72060966 1.8256901e-38
-0.18346965 0.18861236 0.75056511 2.0191196e-38
-0.20497732 0.20444776 0.72746438 1.93618e-38
-0.22786252 0.23783746 0.69608486 1.81647e-38
-0.21148103 0.17407116 0.73130435 1.9823137e-38
-0.23418805 0.19046205 0.70604295 1.8808982e-38
-0.2526682 0.24463233 0.67301708 1.6966511e-38
-0.25947493 0.2091262 0.6783334 1.7703712e-38
-0.18726291 0.14250447 0.76148909 2.0929118e-38
-0.19670442 0.093810208 0.76829237 2.1574126e-38
-0.21711677 0.13334888 0.73798221 2.0467782e-38
-0.24095556 0.14104256 0.71500349 1.9546544e-38
-0.22434755 0.087513551 0.74591976 2.0929118e-38
-0.24929059 0.092071638 0.7219221 2.0099359e-38
-0.26839447 0.17437641 0.68388587 1.7150178e-38
-0.28117371 0.23701814 0.65177268 1.5399541e-38
-0.30296963 0.24484339 0.62725002 1.5861238e-38
-0.28898057 0.19271454 0.66284811 1.6412975e-38
-0.32594672 0.22965802 0.61460733 1.5031845e-38
-0.31994882 0.18556187 0.63858056 1.6690646e-38
-0.33479157 0.19311476 0.61907643 1.5769053e-38
-0.27515754 0.13701349 0.69074088 1.6872869e-38
-0.28289589 0.09063562 0.69952172 1.7887024e-38
-0.31230125 0.068574108 0.68266571 1.8256893e-38
-0.29965141 0.14327013 0.67043239 1.7242737e-38
-0.30574393 0.1073283 0.67528296 1.8349091e-38
-0.32925233 0.13920429 0.64610612 1.6875039e-38
-0.34734699 0.14449911 0.62665826 1.6137481e-38
-0.33626148 0.089955114 0.65558326 1.7336018e-38
0.23466429 -0.021169584 1.1833711 1.6411908e-38
0.22768766 -0.065034777 1.190557 1.4752384e-38
0.22377296 -0.10482406 1.2037728 1.3461645e-38
0.23166966 -0.17286789 1.234727 1.0787975e-38
0.22483961 -0.15136388 1.2198428 1.170993e-38
0.22637437 -0.20779076 1.2394841 9.4050473e-39
0.20317508 -0.22226059 1.2221485 9.40432e-39
0.17399484 -0.22886117 1.2004054 9.6809097e-39
0.21883722 -0.26318365 1.2490155 7.6529702e-39
0.19666393 -0.25070781 1.2237533 8.3898121e-39
0.21475734 -0.29608285 1.2486371 5.163328e-39
0.19904178 -0.30464458 1.2205751 3.1361032e-39
0.1655141 -0.26056024 1.2024531 8.2976165e-39
0.18259317 -0.3035315 1.2330583 5.625025e-39
0.16073669 -0.30557847 1.2058895 5.3480724e-39
0.1382923 -0.27495763 1.1810002 8.0206695e-39
0.13033307 -0.30810487 1.1884456 6.5458967e-39
0.217149 0.038315497 1.1485624 1.8162898e-38
0.19391149 0.053351611 1.1250361 1.8808625e-38
0.21229714 -0.009499304 1.1585562 1.7241303e-38
0.16522618 0.040225036 1.1035657 1.9730218e-38
0.18283401 -0.015734499 1.1343766 1.7702633e-38
0.16007873 -0.008186115 1.1130637 1.6780321e-38
0.14138946 0.056414157 1.077 2.0283753e-38
0.20495899 -0.053588953 1.1667217 1.6043117e-38
0.1770706 -0.054508712 1.1447181 1.5766528e-38
0.15167513 -0.047161214 1.1203085 1.0787975e-38
0.13590094 0.030184487 1.0828165 2.028339e-38
0.13096927 -0.012604318 1.0888318 1.5765809e-38
0.11380461 0.041338339 1.0589621 2.0928758e-38
0.10508564 -0.0095367217 1.0652345 1.8255084e-38
0.08556357 0.03489786 1.0338148 2.1666321e-38
0.061846565 0.040304322 1.0132296 2.1389729e-38
0.077633649 -0.011075543 1.0406876 2.0283386e-38
0.052637674 -0.0091794515 1.0207474 2.0007511e-38
0.12459935 -0.053052548 1.0908284 7.7444385e-39
0.12449017 -0.090279132 1.0840001 4.0584056e-39
0.10317143 -0.06378822 1.068588 6.8224794e-39
0.10359548 -0.09003792 1.0678234 4.1491663e-39
0.06785617 -0.060287964 1.0440272 8.4819979e-39
0.047496635 -0.064533159 1.0251164 8.39124e-39
0.073147543 -0.09770789 1.0415179 4.0566049e-39
0.049771383 -0.10007631 1.0225469 4.1495152e-39
0.14216141 -0.24885082 1.1759335 8.943346e-39
0.14556143 -0.31822252 1.173889 3.3211993e-39
0.11532307 -0.2592437 1.1572254 8.9429817e-39
0.10736757 -0.31372657 1.1609501 5.8083317e-39
0.085425556 -0.2655054 1.1339808 9.2195658e-39
0.062527888 -0.26544669 1.1157959 9.4039556e-39
0.073819727 -0.31728917 1.1417313 6.2689497e-39
0.054263681 -0.30572689 1.1196139 7.1912591e-39
0.029694263 0.036580428 0.9887284 2.1390443e-38
0.02048731 -0.011935529 0.99563926 2.1113857e-38
0.015624627 -0.060366269 1.005426 1.1616997e-38
0.01426478 -0.10253935 0.99743617 4.8870844e-39
-0.016768014 -0.072896853 0.98515666 9.5883357e-39
-0.021002674 -0.090534471 0.98264247 8.0213757e-39
0.0063217427 0.040807538 0.96632642 2.2219847e-38
-0.0038867099 -0.0063091293 0.97197384 2.1758866e-38
-0.023317745 0.036266025 0.94237977 2.2588633e-38
-0.047225785 0.044073876 0.91782826 2.2957055e-38
-0.031625029 -0.011798135 0.94962353 2.2035456e-38
-0.054737937 0.0011253546 0.92455757 2.2588271e-38
-0.0077426271 -0.10534841 0.97750014 5.4395408e-39
-0.037959095 -0.057967547 0.9587729 1.6687392e-38
-0.038218614 -0.11145899 0.95881099 5.623932e-39
-0.076210178 0.038442139 0.89526612 2.3049252e-38
-0.083823986 -0.011958849 0.90431261 2.2588273e-38
-0.1144172 -0.024967073 0.88351089 2.2404242e-38
-0.10005601 0.042685729 0.8727473 2.3049254e-38
-0.10862799 0.0067271017 0.87725008 2.2864861e-38
-0.12961937 0.038853362 0.84744757 2.2957058e-38
-0.15306641 0.043457869 0.82385498 2.2772668e-38
-0.13469295 -0.0096375188 0.85901254 2.2680472e-38
-0.065891467 -0.065400653 0.93695658 1.6595197e-38
-0.091100276 -0.056880757 0.91222399 2.0744357e-38
-0.06964168 -0.10592276 0.93863779 7.1912563e-39
-0.091463849 -0.11343194 0.91789377 6.730281e-39
-0.11969151 -0.065336943 0.88977164 2.1113145e-38
-0.12581514 -0.10892057 0.8944999 8.9429747e-39
-0.14304815 -0.056723882 0.86578429 2.1943266e-38
-0.14918001 -0.11101467 0.87261337 1.0234074e-38
0.030642461 -0.27155399 1.0896174 9.7727396e-39
0.020258902 -0.30903682 1.0935705 7.6525974e-39
0.011154006 -0.27160457 1.0734193 1.0510655e-38
-0.00043639305 -0.30635831 1.073505 8.113214e-39
-0.024310548 -0.28059378 1.0443572 1.0325909e-38
-0.028906547 -0.31327716 1.0501887 7.8366299e-39
-0.053243153 -0.3013849 1.0236206 8.8507819e-39
-0.082054041 -0.31084576 1.0002863 8.3898051e-39
-0.055564888 -0.14015621 0.94600004 2.9524336e-39
-0.067692623 -0.13974749 0.93610013 3.2279274e-39
-0.093147047 -0.14286371 0.9135617 3.5045185e-39
-0.12253814 -0.14607106 0.89096415 4.2413661e-39
-0.14902212 -0.1492862 0.86704677 4.610506e-39
-0.10502402 -0.30099028 0.97507393 9.6809027e-39
-0.13458849 -0.317444 0.95646518 8.3901639e-39
0.066507883 -0.34207273 1.143528 1.9361152e-39
0.06269566 -0.33902392 1.1143104 5.5317658e-40
0.030377313 -0.34054068 1.0815927 0
0.0078162728 -0.34980029 1.0629314 2.7694422e-40
-0.033191089 -0.3442564 1.0482769 4.0569678e-39
-0.04822237 -0.36301583 1.0175956 0
-0.062568359 -0.34133273 1.0315626 5.9923572e-39
-0.085010536 -0.35113293 1.0050485 4.3335547e-39
-0.11688279 -0.35275492 0.98375916 5.3473465e-39
-0.14088087 -0.35444897 0.96154034 5.6246551e-39
-0.18221498 0.039180294 0.79953861 2.2403888e-38
-0.16531144 -0.014895242 0.83401167 2.2680833e-38
-0.18785672 -0.007687862 0.81003451 2.2680477e-38
-0.21694289 -0.015124016 0.78632301 2.2772675e-38
-0.17265409 -0.063984685 0.84122586 2.2403888e-38
-0.1970845 -0.058829099 0.81839162 2.3141459e-38
-0.17955501 -0.11065581 0.84912014 1.263116e-38
-0.20540887 -0.10542303 0.82460791 1.7333499e-38
-0.22413038 -0.061563913 0.7941258 2.3417689e-38
-0.23285927 -0.11308534 0.80250126 1.6595935e-38
-0.26713806 -0.12794986 0.78114951 9.1291568e-39
-0.18096986 -0.15308221 0.84351575 4.9796514e-39
-0.2039602 -0.16045387 0.82358533 4.5186733e-39
-0.21126789 -0.14023817 0.83099997 7.6526072e-39
-0.23528844 -0.16171116 0.80345345 4.7034261e-39
-0.25222051 -0.18986495 0.79010201 1.7545994e-39
-0.16219315 -0.31763852 0.93111682 8.8525741e-39
-0.18565826 -0.32394251 0.91177088 8.1143e-39
-0.21807638 -0.3290323 0.88757503 7.8380747e-39
-0.23583117 -0.33056426 0.87000829 7.8391495e-39
-0.26782611 -0.15231696 0.78422123 5.2562369e-39
-0.26439995 -0.18886325 0.78333902 1.7542421e-39
-0.20499475 0.049136642 0.77577192 2.1942912e-38
-0.23317903 0.039192397 0.75322282 2.1389739e-38
-0.25576887 0.055886466 0.72795779 2.0375946e-38
-0.23942129 -0.0084924931 0.7626037 2.2219861e-38
-0.24774005 -0.057892889 0.77045089 2.341769e-38
-0.25609592 -0.098740056 0.77723658 2.3509886e-38
-0.26594657 0.022272717 0.73192483 1.899337e-38
-0.28658211 0.041941438 0.71190196 1.8071415e-38
-0.27452666 -0.015830422 0.73848802 1.7887384e-38
-0.29525009 -0.00547317 0.7202301 1.8256171e-38
-0.31906721 0.033133578 0.68882406 1.8441287e-38
-0.32870045 -0.012131141 0.6951291 1.7427855e-38
-0.34206578 0.04124425 0.66634405 1.7243824e-38
-0.35098064 -0.0058698258 0.67307776 1.6691372e-38
-0.28236899 -0.061446991 0.7474097 1.8071778e-38
-0.30499858 -0.053028829 0.72677708 1.8349091e-38
-0.28631932 -0.10983592 0.75942522 1.650482e-38
-0.33499646 -0.06081403 0.70439368 1.696724e-38
-0.31675991 -0.11767665 0.73678517 1.5952365e-38
-0.33947083 -0.10977902 0.71477938 1.5215524e-38
-0.35776001 -0.0434689 0.67845839 1.6507342e-38
-0.2592752 -0.16534761 0.77800006 4.2428123e-39
-0.28851396 -0.16208932 0.76683748 4.8881803e-39
-0.29053321 -0.19503291 0.76448172 1.4776566e-39
-0.3246145 -0.16148102 0.74316269 6.3636705e-39
-0.34798369 -0.16252863 0.72099334 7.471097e-39
-0.32077107 -0.19774656 0.73887247 1.5702152e-39
-0.34557354 -0.20293035 0.71876615 1.5705753e-39
-0.36130944 0.040016104 0.64765799 1.632188e-38
-0.36477974 -0.010949926 0.66261822 1.6046008e-38
-0.36411428 -0.070260651 0.68355703 1.577014e-38
-0.37040889 -0.11240031 0.69000375 1.4019143e-38
-0.36944821 -0.054856084 0.67290384 1.5585753e-38
-0.37893659 -0.097855076 0.67821217 1.4570888e-38
-0.37377447 -0.16026115 0.7000826 8.4863294e-39
-0.37440085 -0.20537141 0.6960001 1.8482426e-39
-0.16689947 -0.36042663 0.94018525 5.3487941e-39
-0.19031896 -0.34992468 0.91613656 6.5469757e-39
-0.21867885 -0.3454811 0.89062381 6.7317257e-39
-0.2436769 -0.33931512 0.86834544 7.0086741e-39
-0.26319462 -0.33925247 0.85900003 7.1916193e-39
0.85442996 -0.12324983 1.7480001 4.335759e-39
0.86565048 -0.10936154 1.7570001 4.3353974e-39
0.85435814 -0.047042809 1.7310001 3.5070717e-39
0.69381827 -0.094973102 1.601 5.7190424e-39
0.65644449 -0.086821556 1.572 5.4431673e-39
0.61002326 -0.073096469 1.516 5.8090688e-39
0.55372018 -0.0089104399 1.452 8.7614743e-39
0.56489772 0.15352361 1.4100001 1.0421012e-38
0.56234568 0.19491838 1.3920002 1.1066743e-38
0.5605433 0.22155383 1.381 1.1341548e-38
0.55495542 0.24397758 1.3717647 1.1987268e-38
0.55386746 0.51082671 1.2920001 1.1436608e-38
0.53876162 0.50726825 1.2830001 1.1897587e-38
0.32682994 0.4413254 1.1182001 1.4200319e-38
0.30101314 0.4327665 1.097 1.420319e-38
-0.039212715 0.32750309 0.82833338 1.3188309e-38
-0.058248051 0.32307565 0.81845468 1.4016273e-38
-0.17901182 0.28490615 0.71900004 1.5032942e-38
-0.19059828 0.28153801 0.7105 1.1529141e-38
-0.2703605 0.26007193 0.65200001 1.604563e-38
-0.29458982 0.25181034 0.63441169 1.5307698e-38
-0.34003532 0.23041518 0.60700005 1.447903e-38
-0.34044752 0.22445878 0.60790914 1.5585022e-38
-0.35146844 0.12640499 0.62800008 1.6137476e-38
-0.35702777 0.085486688 0.63733339 1.6413354e-38
-0.36287081 0.026979515 0.64866668 1.6230405e-38
-0.36673912 -0.0054005403 0.65743768 1.6321882e-38
-0.38036901 -0.10059837 0.67900002 1.4570529e-38
-0.38122296 -0.1148392 0.68227273 1.2267445e-38
-0.38410386 -0.22257064 0.69078946 7.4081885e-40
-0.36968681 -0.22033088 0.70400006 1.1095944e-39
-0.30602887 -0.20221788 0.75428116 1.2014341e-39
-0.25621426 -0.33679292 0.85671431 7.1930668e-39
-0.22394976 -0.3506991 0.88700002 6.7310055e-39
-0.15162711 -0.37330103 0.96266675 3.1364535e-39
-0.1220892 -0.36175388 0.98250002 4.1495292e-39
-0.083739199 -0.3715927 0.99500006 0
-0.0555446 -0.34337771 1.0338573 5.5306504e-39
-0.039468411 -0.3423655 1.0470001 6.2700021e-39
0.0074692005 -0.34918338 1.0650001 0
0.066177234 -0.34219283 1.138 1.1056329e-39
0.25569439 -0.29089254 1.284875 4.5197705e-39
0.26196203 -0.2901907 1.2880001 4.1495614e-39
0.45984238 -0.23435491 1.4450001 5.1644336e-39
0.49657905 -0.22251552 1.4700001 6.4547997e-39
0.5830605 -0.20063744 1.536 4.8889272e-39
0.60400212 -0.19633323 1.55525 5.0729555e-39
0.66247249 -0.1810571 1.6010001 4.8889258e-39
0.70188737 -0.16657367 1.6240001 4.8885712e-39
0.72915435 -0.16171345 1.6470001 3.967338e-39
0.75442874 -0.15088573 1.6710002 4.6148598e-39
0.77461255 -0.14621164 1.680889 3.691107e-39
0.7954523 -0.13579684 1.6960001 4.6130605e-39
0.80943245 -0.13665743 1.7130001 4.2432018e-39
0.82576215 -0.13284656 1.7220001 3.874778e-39
