# .PCD v0.7 - Point Cloud Data file format
VERSION 0.7
FIELDS x y z rgb
SIZE 4 4 4 4
TYPE F F F F
COUNT 1 1 1 1
WIDTH 294
HEIGHT 1
VIEWPOINT 0 0 0 1 0 0 0
POINTS 294
DATA ascii
-0.33879253 0.61965197 1.5860001 1.3274346e-38
-0.33763939 0.61601961 1.572 1.373424e-38
-0.34590811 0.61326337 1.572 1.1060194e-38
-0.34390366 0.59038079 1.4961113 1.078797e-38
-0.34641182 0.57214421 1.4594584 1.0602502e-38
-0.34969094 0.53599244 1.4871176 1.1063851e-38
-0.34812957 0.54229373 1.4526659 1.0879091e-38
-0.34652793 0.56670451 1.427 1.0510305e-38
-0.34972087 0.53820223 1.4106567 1.0878724e-38
-0.34775734 0.52555615 1.3517913 1.0878007e-38
-0.3506732 0.51735699 1.313875 1.0878358e-38
-0.34447238 0.47915399 1.4490453 1.152411e-38
-0.34594524 0.44567609 1.4430952 1.2170911e-38
-0.34538385 0.48650402 1.4063472 1.1431545e-38
-0.34760514 0.48696598 1.3552531 1.1247148e-38
-0.34782416 0.43989089 1.408116 1.1893602e-38
-0.34770113 0.43726271 1.3544627 1.1800325e-38
-0.3504248 0.39573443 1.4350001 1.2906312e-38
-0.34754702 0.39318964 1.4009305 1.2445691e-38
-0.34863091 0.3896876 1.3538376 1.2260941e-38
-0.34781006 0.34256858 1.3948402 1.2998509e-38
-0.34986097 0.33833742 1.3581792 1.2814118e-38
-0.34859565 0.49085686 1.3054566 1.0969837e-38
-0.35041916 0.48190269 1.2564248 1.0784721e-38
-0.34937397 0.44076091 1.3075277 1.1339341e-38
-0.35139123 0.43826374 1.2573537 1.1153866e-38
-0.35057652 0.46834195 1.2006944 1.0509214e-38
-0.35525078 0.46601081 1.1780001 1.0600334e-38
-0.35330656 0.43977049 1.2052956 1.0785078e-38
-0.35415548 0.43654183 1.1568385 1.0600331e-38
-0.35043105 0.3872571 1.3025827 1.1983991e-38
-0.35178539 0.38888368 1.2567502 1.1707403e-38
-0.35008889 0.33937958 1.3033808 1.2537892e-38
-0.35215223 0.33866 1.2537763 1.2352415e-38
-0.35313305 0.38824859 1.2050596 1.143009e-38
-0.35516495 0.38855609 1.1576136 1.1061305e-38
-0.35321358 0.34105086 1.206257 1.1891787e-38
-0.35451904 0.33884978 1.1552708 1.1523005e-38
-0.34838626 0.29057956 1.3875 1.3828272e-38
-0.35103145 0.28862318 1.3592 1.3367296e-38
-0.35114953 0.23975787 1.3566726 1.3920828e-38
-0.352651 0.19048849 1.3431177 1.4104136e-38
-0.35408479 0.13672581 1.3330001 1.4566915e-38
-0.35086051 0.29025486 1.3056186 1.3275462e-38
-0.3518503 0.29071614 1.2540858 1.2998509e-38
-0.35027584 0.24012908 1.3041879 1.3736077e-38
-0.35250372 0.24075042 1.253 1.3458768e-38
-0.35332152 0.28835076 1.2065982 1.2536805e-38
-0.35447639 0.28767428 1.1562355 1.2075818e-38
-0.35423025 0.2385634 1.2088001 1.2997423e-38
-0.35469204 0.24041219 1.1572008 1.2536076e-38
-0.34980449 0.19130403 1.3042819 1.3919382e-38
-0.35169765 0.18798333 1.2571597 1.3827185e-38
-0.35206711 0.14138752 1.3018417 1.4196332e-38
-0.35211381 0.14008281 1.2515965 1.4195972e-38
-0.35323033 0.18962194 1.2083601 1.3550954e-38
-0.35498926 0.18952464 1.1587758 1.3089975e-38
-0.35253575 0.13702652 1.2045616 1.4104138e-38
-0.35504746 0.13872673 1.1580507 1.3735711e-38
-0.35518745 0.42897022 1.1101844 1.0416656e-38
-0.35606387 0.42021343 1.0681356 1.0232988e-38
-0.35545781 0.38911834 1.1053311 1.0784719e-38
-0.35641927 0.38888454 1.0557584 1.0508494e-38
-0.35572904 0.33853596 1.1066325 1.1245696e-38
-0.35681289 0.33894816 1.0560086 1.1060948e-38
-0.35609737 0.38454217 1.0071566 1.0324462e-38
-0.35743251 0.37531415 0.95811146 1.0233349e-38
-0.35700518 0.34042922 1.0048313 1.0692884e-38
-0.35747227 0.33998898 0.95590836 1.0509216e-38
-0.36200404 0.36730176 0.92900014 1.2076527e-38
-0.36054733 0.33861965 0.92433763 1.0970914e-38
-0.35612211 0.28872627 1.1037335 1.1706313e-38
-0.35757107 0.2888414 1.0554785 1.1430086e-38
-0.35521686 0.2395374 1.1058514 1.2167657e-38
-0.35731962 0.24100646 1.0576128 1.1890706e-38
-0.3575629 0.29027501 1.0054264 1.1153499e-38
-0.35868955 0.29063469 0.9562217 1.1061308e-38
-0.35801953 0.23885475 1.0064069 1.1614121e-38
-0.35892314 0.23992525 0.95532662 1.1338614e-38
-0.3558462 0.19041467 1.1069032 1.2628994e-38
-0.35789058 0.18939142 1.056067 1.2352047e-38
-0.35547554 0.1390038 1.105225 1.3274373e-38
-0.3565146 0.13962248 1.0561554 1.2813392e-38
-0.35756454 0.18942413 1.0068958 1.1983264e-38
-0.3592121 0.18937179 0.95552474 1.1799236e-38
-0.35717705 0.13883595 1.0063471 1.2536806e-38
-0.35866424 0.13863686 0.95526963 1.2260578e-38
-0.36020935 0.28808859 0.91499805 1.1246058e-38
-0.36000139 0.23752163 0.90848035 1.1430813e-38
-0.36310697 0.22566126 0.88013339 1.1800679e-38
-0.36008036 0.18999563 0.90701437 1.1799604e-38
-0.36231381 0.18453498 0.87468135 1.2260934e-38
-0.36048704 0.13992839 0.90956938 1.1983993e-38
-0.36220583 0.13578822 0.86755949 1.2260575e-38
-0.35233444 0.088709489 1.2971743 1.474987e-38
-0.35247135 0.090163559 1.2549644 1.4565482e-38
-0.35338625 0.047123428 1.2865001 1.4934267e-38
-0.35332039 0.039061327 1.2521464 1.4750229e-38
-0.35363457 0.088571452 1.208136 1.456548e-38
-0.35456514 0.088720739 1.1563226 1.4289252e-38
-0.35380054 0.037780229 1.2062838 1.465731e-38
-0.35487148 0.038841665 1.1561928 1.4288525e-38
-0.35384008 -0.0052570784 1.2544405 1.4564391e-38
-0.35415453 -0.049521856 1.2396877 1.4471836e-38
-0.35410488 -0.011259069 1.2073699 1.4287806e-38
-0.3553434 -0.011094497 1.1570355 1.4195969e-38
-0.35381618 -0.059983451 1.2055142 1.4196333e-38
-0.3560499 -0.061471246 1.1599739 1.4197059e-38
-0.35451487 -0.11144927 1.1945095 1.4104868e-38
-0.357256 -0.11059659 1.1570274 1.4013392e-38
-0.35559815 -0.1563441 1.1938837 1.3643887e-38
-0.35730538 -0.15965138 1.1576585 1.318291e-38
-0.35812929 -0.20259035 1.1901112 1.2721566e-38
-0.35705432 -0.2092759 1.1565746 1.2444977e-38
-0.35765675 -0.25952879 1.1511216 1.2169477e-38
-0.35808587 -0.30463269 1.14328 1.1893969e-38
-0.35829973 -0.37147933 1.2122667 2.3963717e-39
-0.34741512 -0.39455697 1.169 7.4642531e-39
-0.35622594 0.088459253 1.1082528 1.3827552e-38
-0.35699442 0.089971557 1.0576729 1.3182177e-38
-0.35628858 0.038613211 1.1075491 1.3827544e-38
-0.3575235 0.039323844 1.0559798 1.3458045e-38
-0.35844988 0.090602018 1.0077237 1.2721196e-38
-0.3597891 0.088810623 0.95569092 1.2444249e-38
-0.3592962 0.037536677 1.006568 1.2905589e-38
-0.36023772 0.039584551 0.95697284 1.2537171e-38
-0.35679328 -0.0089539569 1.1056045 1.4011578e-38
-0.35885543 -0.011504042 1.0570977 1.3735357e-38
-0.35757443 -0.06079815 1.1048348 1.4104865e-38
-0.35944033 -0.060587771 1.0551403 1.3552774e-38
-0.35950357 -0.010936494 1.0079446 1.3182904e-38
-0.36041826 -0.0097666308 0.95563573 1.2722648e-38
-0.35961759 -0.060050786 1.0044513 1.318363e-38
-0.36032173 -0.059671912 0.9565044 1.2630817e-38
-0.36115658 0.08784999 0.90818942 1.2168024e-38
-0.36218792 0.089248165 0.86283004 1.1984351e-38
-0.36079669 0.039743166 0.90714121 1.2352781e-38
-0.36229125 0.039645009 0.86102706 1.2169111e-38
-0.36306509 0.031902026 0.82155007 1.3183263e-38
-0.36112159 -0.0095607201 0.90899426 1.2537901e-38
-0.3622269 -0.010426599 0.85925585 1.2170197e-38
-0.36172828 -0.060618352 0.90923631 1.216948e-38
-0.36190012 -0.060458813 0.86236143 1.1892885e-38
-0.36278364 -0.009145353 0.81904012 1.2077996e-38
-0.36301804 -0.051724631 0.81898928 1.1708496e-38
-0.35838237 -0.11035082 1.1029655 1.3736808e-38
-0.35967359 -0.11140572 1.0559018 1.3183274e-38
-0.35854077 -0.1608023 1.1058097 1.2813767e-38
-0.3598758 -0.15980589 1.0564936 1.2353145e-38
-0.36019734 -0.11122408 1.0066392 1.2630094e-38
-0.36059394 -0.11105867 0.95607078 1.2076557e-38
-0.3606441 -0.16037016 1.0062352 1.1892168e-38
-0.36061648 -0.16017972 0.95628971 1.1431909e-38
-0.35841319 -0.21071415 1.1074288 1.2168754e-38
-0.35982588 -0.21118243 1.0562561 1.1985087e-38
-0.35893419 -0.26016381 1.1093365 1.1985809e-38
-0.35997432 -0.26000032 1.0581861 1.1985813e-38
-0.36042386 -0.21133134 1.006583 1.1709228e-38
-0.36099187 -0.21027835 0.95972747 1.143372e-38
-0.36060917 -0.26029179 1.0072433 1.1709589e-38
-0.36166155 -0.25925148 0.95979625 1.1248967e-38
-0.36130601 -0.10861424 0.90873194 1.1523745e-38
-0.36254814 -0.10925343 0.86714983 1.1246799e-38
-0.36158112 -0.15934719 0.91241312 1.1155688e-38
-0.36273265 -0.15105356 0.86576653 1.087982e-38
-0.36316881 -0.13244855 0.76300001 1.0052947e-38
-0.36290884 -0.15264016 0.7720834 1.0512121e-38
-0.36206353 -0.20521125 0.90981591 1.1157133e-38
-0.3630777 -0.22415355 0.85896593 1.0328453e-38
-0.36291894 -0.25953671 0.909962 1.0512121e-38
-0.36296517 -0.25882211 0.86284375 9.5908875e-39
-0.36337394 -0.23629235 0.75500005 8.023559e-39
-0.36299443 -0.26766527 0.81408137 8.3919771e-39
-0.36255005 -0.26568145 0.74390513 7.7469665e-39
-0.3630622 -0.27040884 0.72028577 7.9317193e-39
-0.35841325 -0.31039715 1.1076224 1.1708866e-38
-0.35870424 -0.30975753 1.0566655 1.1525194e-38
-0.36195374 -0.3368583 1.1010001 1.1435135e-38
-0.36037648 -0.30976614 1.0075052 1.1157127e-38
-0.36247888 -0.3093619 0.95771188 1.0234441e-38
-0.3581858 -0.3477101 0.99660587 1.0050778e-38
-0.35784623 -0.35493043 0.95874679 9.4979604e-39
-0.36234826 -0.31310871 0.90754771 9.0348116e-39
-0.36283118 -0.31155935 0.85905457 8.4819979e-39
-0.36182043 -0.34878761 0.9097203 9.2213805e-39
-0.36154938 -0.34010991 0.87046313 8.7593191e-39
-0.36285985 -0.30075538 0.81565833 8.2986927e-39
-0.36305386 -0.29632065 0.76394856 8.1161105e-39
-0.37040901 0.36695287 0.92514294 1.216801e-38
-0.37136063 0.33749387 0.91435558 1.2537507e-38
-0.37261871 0.29090536 0.89603329 1.3274348e-38
-0.37186548 0.25853452 0.88501233 1.3735683e-38
-0.37246698 0.23261753 0.8750807 1.4104468e-38
-0.37125295 0.18851511 0.85952121 1.438106e-38
-0.36395955 0.12002093 0.88900012 1.1799601e-38
-0.36978492 0.1403628 0.84406149 1.4196671e-38
-0.37607443 0.11878285 0.82970452 1.5947657e-38
-0.3669765 -0.37824881 1.2230002 3.5948939e-39
-0.36435735 -0.079808883 0.95325011 1.2353505e-38
-0.36369705 0.10567001 0.89110011 1.1892154e-38
-0.36455992 0.091840424 0.84347564 1.2076183e-38
-0.3634766 0.018898362 0.90566677 1.2537185e-38
-0.36408824 0.038391721 0.84640902 1.2169114e-38
-0.37275329 0.087158531 0.82018572 1.548669e-38
-0.36977413 0.039339084 0.80654478 1.4750213e-38
-0.36422795 -0.0058477018 0.89090711 1.2446064e-38
-0.36417773 -0.0057237935 0.85216898 1.2169837e-38
-0.36399099 -0.063386515 0.90200007 1.2077639e-38
-0.36404058 -0.060568072 0.84731746 1.1616658e-38
-0.3666417 -0.0090167793 0.80173212 1.3460205e-38
-0.37426519 -0.01929139 0.77566266 1.6871066e-38
-0.36497906 -0.061984763 0.80289811 1.1708132e-38
-0.37312281 -0.062821344 0.76371157 1.5949836e-38
-0.36423293 -0.21886277 0.94216675 1.1342239e-38
-0.364003 -0.26406619 0.93785012 1.069615e-38
-0.36382753 -0.12246816 0.8906334 1.1246795e-38
-0.36442164 -0.11166417 0.84708816 1.1063122e-38
-0.36441559 -0.16018867 0.89438885 1.0971658e-38
-0.36473688 -0.16432977 0.85263324 1.0787989e-38
-0.36527765 -0.11070094 0.80644649 1.0879456e-38
-0.37069747 -0.11158533 0.75387204 1.4291406e-38
-0.36545426 -0.1606575 0.80657476 1.0512481e-38
-0.36612272 -0.16044004 0.75695062 1.1066373e-38
-0.36477885 -0.2195078 0.90090829 1.097274e-38
-0.36498797 -0.21014771 0.85578912 1.0512482e-38
-0.36453748 -0.26086074 0.9053852 1.032809e-38
-0.36501312 -0.26115558 0.85574973 9.2221021e-39
-0.3656128 -0.21036488 0.80677706 9.8678331e-39
-0.36548752 -0.21121277 0.75614733 9.4072151e-39
-0.36504766 -0.26180831 0.80614734 8.1157532e-39
-0.36524752 -0.25828224 0.75877166 7.9313591e-39
-0.3797774 -0.13262464 0.72919041 1.7886298e-38
-0.37581441 -0.16361555 0.719769 1.6873953e-38
-0.37253755 -0.21246688 0.70657027 1.4479037e-38
-0.3673532 -0.25688812 0.70509726 1.0699023e-38
-0.37629598 -0.2595475 0.6793952 1.7520047e-38
-0.36740071 -0.35337919 1.0430279 1.0604311e-38
-0.36400828 -0.31981832 1.0178601 1.0972737e-38
-0.36398986 -0.31325439 0.94801247 9.957135e-39
-0.36397752 -0.34367216 0.94376171 9.682346e-39
-0.36453801 -0.3070814 0.90794653 9.0348116e-39
-0.36461896 -0.30888942 0.85816914 8.3901625e-39
-0.36439255 -0.35119352 0.91109091 9.1291792e-39
-0.36467433 -0.33675718 0.85300004 8.2979696e-39
-0.36483023 -0.30568913 0.80813092 8.1146616e-39
-0.36534747 -0.29303452 0.76061815 8.0242736e-39
-0.36413139 -0.35500529 1.041 9.6837879e-39
-0.36120594 -0.38257909 1.2190001 4.792742e-39
-0.35755903 -0.37244016 1.2126667 2.9495455e-39
-0.35873112 -0.21335611 1.1930001 1.2537193e-38
-0.35747835 -0.15699346 1.21 1.3644614e-38
-0.35614583 -0.066845834 1.25 1.438e-38
-0.35589248 0.042070355 1.2970001 1.5026468e-38
-0.35405323 0.074477218 1.307 1.5302682e-38
-0.35360438 0.1773935 1.3490001 1.4013734e-38
-0.35061845 0.2130037 1.365 1.4474721e-38
-0.3507894 0.32617259 1.404 1.2999233e-38
-0.3473441 0.34858018 1.4100001 1.3092505e-38
-0.34666029 0.4755303 1.47 1.152375e-38
-0.35114095 0.52605873 1.4890001 1.0972725e-38
-0.34590811 0.61326337 1.572 1.1060194e-38
-0.33763939 0.61601961 1.572 1.373424e-38
-0.3442179 0.60204905 1.516 1.1340065e-38
-0.3475624 0.56307596 1.4210001 1.0602502e-38
-0.34312034 0.5385083 1.3590001 1.0878361e-38
-0.35405323 0.51904893 1.307 1.0784718e-38
-0.35153896 0.50554651 1.273 1.0784718e-38
-0.35615987 0.45193395 1.138 1.0418091e-38
-0.35437846 0.44618124 1.126 1.0418091e-38
-0.35742751 0.39569226 0.99200004 1.0048951e-38
-0.35752746 0.3901079 0.97800004 1.0232989e-38
-0.36306557 0.36712804 0.92650008 1.2168011e-38
-0.36392152 0.35136697 0.91800004 1.2261284e-38
-0.36395955 0.27043676 0.88900006 1.3459821e-38
-0.3672795 0.25593585 0.88200009 1.382788e-38
-0.36912593 0.12148619 0.8318001 1.6131689e-38
-0.37208614 0.10214332 0.82300007 1.6131695e-38
-0.36732486 0.057334878 0.80600017 1.6685237e-38
-0.36797908 0.041974802 0.79800004 1.6870335e-38
-0.36891216 -0.084191263 0.74833339 1.7702266e-38
-0.37186974 -0.10430492 0.73900002 1.8069978e-38
-0.3695229 -0.14831622 0.72300005 1.770299e-38
-0.36904556 -0.16888545 0.71350002 1.8255451e-38
-0.37141311 -0.2164325 0.69600004 1.7704797e-38
-0.36796859 -0.22806565 0.68786675 1.7705513e-38
-0.36823946 -0.27004227 0.68300003 8.3005158e-39
-0.36548585 -0.27518216 0.69600004 1.4482662e-38
-0.36536837 -0.28071743 0.71000004 8.0246394e-39
-0.3664265 -0.3317745 0.84100002 7.836274e-39
-0.36467433 -0.33675718 0.85300004 8.2979696e-39
-0.36097363 -0.35623437 0.90100002 9.2217434e-39
-0.3653596 -0.36374652 0.92000002 9.4972415e-39
-0.35758662 -0.37269598 0.9575001 1.0050774e-38
-0.36283216 -0.3716602 1.0070001 8.854784e-39
