# .PCD v0.7 - Point Cloud Data file format
VERSION 0.7
FIELDS x y z rgb
SIZE 4 4 4 4
TYPE F F F F
COUNT 1 1 1 1
WIDTH 788
HEIGHT 1
VIEWPOINT 0 0 0 1 0 0 0
POINTS 788
DATA ascii
3.3496504 1.8344705 6.6220002 1.9487914e-39
3.2864208 1.9764091 6.4970002 1.5774836e-38
3.2864208 1.9422349 6.4970002 1.9462661e-38
3.2826235 1.8283209 6.4970002 4.715012e-39
3.2750294 1.788451 6.4970002 8.948444e-39
3.2135313 1.9057637 6.3750005 1.8807485e-39
3.2247088 1.87782 6.3750005 2.0751951e-38
3.2247088 1.8275213 6.3750005 6.468227e-39
3.2045891 1.7805758 6.3750005 7.8420992e-39
3.1495705 1.8683428 6.2590003 3.1635672e-39
3.1623735 1.8308479 6.2590003 1.1261663e-38
3.1523142 1.7805499 6.2590003 7.3854272e-39
3.1331093 1.7613451 6.2590003 6.9208464e-39
3.0980961 1.8696337 6.1460004 3.1089768e-40
3.0980961 1.7888138 6.1460004 8.7658968e-39
3.2023537 1.7492788 6.3750005 8.7636968e-39
3.1440835 1.7064747 6.2590003 9.224305e-39
3.1440835 1.6900134 6.2590003 9.0417158e-39
3.1276224 1.7284229 6.2589998 6.552431e-39
3.1331093 1.6955005 6.2590003 6.1854463e-39
3.0657682 1.8588576 6.1460004 7.0148413e-39
3.0725031 1.8359586 6.1460004 6.0968548e-39
2.9398141 2.2035823 5.8320003 1.0144779e-38
2.919363 2.1780186 5.8320003 1.1159664e-38
2.8703063 2.1678104 5.7340007 1.143625e-38
2.8133636 2.1607027 5.6400003 1.1991589e-38
2.9560511 2.0250254 5.9330001 1.0147321e-38
2.9537394 1.9839929 5.9329996 1.0054417e-38
2.9387138 1.9608762 5.9330001 1.1528107e-38
2.9135201 2.0195243 5.8320003 9.8707296e-39
2.9159546 1.9820312 5.8320003 8.8569462e-39
3.0013087 1.857953 6.0380001 7.474746e-39
3.0176697 1.8377422 6.0380006 5.8231532e-39
3.0118954 1.7759068 6.0380001 5.9117461e-39
2.9537394 1.9319804 5.9329996 9.2246511e-39
2.9491162 1.877656 5.9330001 8.6739856e-39
2.9387138 1.9296687 5.9330001 1.134407e-38
2.9387138 1.877656 5.9330001 9.7803332e-39
2.9595187 1.8343121 5.9330001 7.8424425e-39
2.9387138 1.8412472 5.9330001 8.9487943e-39
2.9176588 1.9274955 5.8320003 7.8435159e-39
2.911694 1.873812 5.8320003 7.6580541e-39
2.9091377 1.8303537 5.8320003 7.7509644e-39
2.8622634 2.1102533 5.7340002 1.1161107e-38
2.8589964 2.0748143 5.7340007 1.1252948e-38
2.8183079 2.1508141 5.6400003 1.1805044e-38
2.8886869 2.009299 5.8320003 1.2635152e-38
2.8886869 1.9939609 5.8320003 1.2542239e-38
2.8562315 2.0271432 5.7340007 1.1528819e-38
2.8476858 1.9931288 5.7340002 1.153061e-38
2.793586 2.0321484 5.6400003 1.2727354e-38
2.8300922 1.9855887 5.7340002 1.2820642e-38
2.793586 1.9876487 5.6400003 1.2635519e-38
2.7836971 2.0123708 5.6400003 1.3097578e-38
2.7836971 1.9827044 5.6400003 1.2822433e-38
2.7504487 2.1424804 5.5480003 1.2731314e-38
2.7020354 2.1300371 5.46 1.2823907e-38
2.7216134 1.9281281 5.5480003 1.3283422e-38
2.6461277 2.1153316 5.3740001 1.5408267e-38
3.076544 1.7403218 6.1460004 7.1066768e-39
3.0603802 1.670278 6.1460004 6.1832841e-39
3.0765443 1.6541139 6.1460004 6.9186926e-39
3.0657682 1.589458 6.1460004 1.8684451e-39
3.0171885 1.7150335 6.0380001 7.0141168e-39
2.9960153 1.6779804 6.0380006 6.735725e-39
2.998956 1.6262233 6.0380001 6.3665922e-39
3.0013087 1.5774074 6.0380001 4.9872619e-39
2.9801357 1.6673937 6.0380001 6.0907157e-39
2.9550605 1.7245903 5.9329996 7.1052376e-39
2.9532771 1.6924912 5.9330001 7.0126833e-39
2.9352465 1.7146832 5.9330001 7.380384e-39
2.9387138 1.6904106 5.9330001 7.0123203e-39
2.9801354 1.6303406 6.0380001 5.7219402e-39
2.9801354 1.603874 6.0380001 5.0787064e-39
2.9491162 1.5707815 5.9330001 5.7223032e-39
2.9283113 1.5655802 5.9330001 4.8017734e-39
2.9491162 1.5395739 5.9330001 4.8025105e-39
2.9262307 1.5458153 5.9329996 4.7077869e-39
2.8518751 1.5164328 5.8320003 4.5233858e-39
2.8656797 1.491636 5.8320003 1.1157863e-38
2.7949045 1.4628007 5.7340002 4.2507296e-39
2.8150117 1.4477203 5.7340002 1.8630407e-38
2.779824 1.4527471 5.7340002 4.4401978e-39
2.7639196 1.4190428 5.6400003 2.0382456e-38
2.7540309 1.3992652 5.6400008 1.8541442e-38
2.6993794 1.3983271 5.5480003 1.2366152e-38
2.6469898 1.364181 5.46 1.4767218e-38
2.6134834 1.3546078 5.46 1.0610814e-38
2.5186746 1.3126794 5.2910004 1.698654e-41
2.5531952 2.037075 5.21 1.974176e-38
2.1972334 1.3643774 4.7740002 3.8582091e-40
2.1483324 1.2862072 4.6450005 1.2360765e-38
2.1273901 1.3106397 4.6450005 8.3846974e-40
2.1378613 1.2990052 4.6450005 4.2504297e-39
2.1001015 1.2682408 4.5820003 1.6671528e-39
2.104275 1.2389227 4.5820003 3.9756407e-39
2.0807474 1.2693362 4.5820003 1.9459103e-39
2.0574648 1.2249646 4.5219998 2.8494704e-40
2.033679 1.0188217 4.5220003 7.759651e-39
1.9993198 1.0055288 4.4630003 7.0224377e-39
1.8396614 1.5384939 4.1390004 1.2553462e-38
1.7996433 1.496712 4.0650005 1.2735676e-38
1.7752131 1.5161091 3.9940002 1.3842381e-38
1.764709 1.4810951 3.9940002 5.3658002e-39
1.7478454 1.5055698 3.9480002 9.5084519e-39
1.7210798 1.4815658 3.9030001 2.4203227e-41
1.6949114 1.4648634 3.8590002 2.4923494e-41
1.7142366 1.4268197 3.9030001 1.8591069e-39
1.6949114 1.4344159 3.8590004 1.146094e-40
1.6847624 1.4885449 3.8590007 2.0391653e-39
1.6543148 1.373521 3.8590002 2.8638827e-39
1.6626438 1.5087574 3.8160005 2.4068548e-39
1.6551499 1.4844034 3.8160012 2.589451e-39
1.6569442 1.4401156 3.8160014 2.4972568e-39
1.6531222 1.3800899 3.8160014 2.5901727e-39
1.6358811 1.4318141 3.8160002 2.7713185e-39
1.6289045 1.4083352 3.7740002 2.9553567e-39
1.6328399 1.3834584 3.8160005 2.8631554e-39
1.6278015 1.3942187 3.7740006 2.9557126e-39
1.8476363 1.0138123 4.1900001 1.264278e-38
1.8525339 0.97585565 4.1900001 7.202115e-39
1.8149874 0.99929535 4.1390004 1.2273993e-38
1.7738416 0.97559708 4.0730004 1.1720455e-38
1.7542048 1.2990218 3.9940002 8.867093e-39
1.73054 1.256372 3.9480002 1.1544352e-38
1.7201568 1.1819588 3.9480002 1.8907681e-38
1.6959881 1.171338 3.9030001 1.2469537e-38
1.7401991 1.0889375 3.9940002 7.8540158e-39
1.7178494 1.0648589 3.9480002 5.552718e-39
1.6971285 1.1496677 3.9030001 1.7255741e-38
1.6937069 1.064127 3.9030001 2.6009865e-39
1.7132345 1.0487072 3.9480002 2.9658118e-39
1.7289946 0.96708852 3.9940002 1.2087791e-38
1.7040049 0.96564132 3.9480002 8.9553089e-39
1.6729214 1.222975 3.8590002 2.5667584e-41
1.6655916 1.1656508 3.8590007 4.1647417e-39
1.6502917 1.3329972 3.8160014 2.4987001e-39
1.6518358 1.2869344 3.8160007 1.7622169e-39
1.6282779 1.325675 3.8160012 2.6802061e-39
1.6224997 1.2975217 3.8160002 2.5883664e-39
1.6123619 1.2675385 3.7740011 2.4976099e-39
1.6470321 1.2317617 3.8160009 1.1208188e-39
1.6459173 1.1809121 3.8160007 5.6946668e-40
1.6295621 1.2292342 3.8160009 2.6816495e-39
1.6050831 1.2362912 3.7740016 2.6809264e-39
1.6237944 1.1787539 3.8160014 2.8649603e-39
1.5958191 1.1921773 3.7740004 2.4057758e-39
1.5847906 1.2331401 3.7740002 2.4961736e-39
1.5847907 1.1910744 3.7740002 2.5869343e-39
1.6600398 1.144254 3.8590009 1.8587706e-39
1.6576978 1.0588968 3.8590002 2.1317295e-39
1.6868635 1.0435971 3.9030001 2.8804531e-39
1.6576977 1.0419815 3.8590007 4.3400988e-39
1.6425718 1.1106595 3.8160002 1.3406222e-41
1.6425718 1.1006235 3.8160002 1.8439686e-41
1.616462 1.1295073 3.8160002 2.7716913e-39
1.6172427 1.0795956 3.816 2.497261e-39
1.6190464 1.0363065 3.8160014 2.7713298e-39
1.5947164 1.0157218 3.7740002 3.0464719e-39
1.6114877 0.9800511 3.8159993 2.4039808e-39
1.5947163 0.99917912 3.7740002 3.1383088e-39
1.5800642 1.0147765 3.7740002 2.7702452e-39
1.5794971 0.99984086 3.7740002 2.3128599e-39
1.9810606 0.93067372 4.4050002 1.0152051e-38
1.9089986 0.8999027 4.2950001 9.968749e-39
1.8849972 0.91833198 4.2410002 9.2318846e-39
1.8089051 0.92354566 4.1390004 8.76874e-39
1.8154712 0.90108323 4.1390004 8.0329841e-39
1.8255969 0.84851688 4.1900001 8.7712652e-39
1.8142617 0.84907448 4.1390004 8.7709093e-39
1.7571344 0.9529621 4.0410004 1.0522282e-38
1.7605751 0.87997121 4.0506005 8.4918028e-39
1.7610902 0.83006167 4.0610003 8.4010435e-39
1.7394215 0.80417246 4.0410004 8.4921546e-39
1.8072307 0.72362697 4.1900001 3.9680442e-39
1.7261934 0.94888121 3.9940002 1.0522644e-38
1.700544 0.93679899 3.9480002 1.0430076e-38
1.7331963 0.86484742 3.9940002 8.3996058e-39
1.7247928 0.82843274 3.9940002 8.9524166e-39
1.6993903 0.81681484 3.9480002 9.0442563e-39
1.7191907 0.80182213 3.9940002 8.2152145e-39
1.6924682 0.78566515 3.9480002 8.6765458e-39
1.6740323 0.93068331 3.9030001 9.8758107e-39
1.6460451 0.92808521 3.8590007 1.7676175e-39
1.6475486 0.90327615 3.8590002 3.3345873e-39
1.673177 0.81434798 3.9030001 8.4907224e-39
1.6452932 0.81080598 3.8590002 1.4874111e-39
1.673177 0.79723978 3.9030001 8.9520607e-39
1.6407826 0.78825217 3.8590004 1.2101193e-39
1.6340164 0.79501837 3.8590002 1.4816671e-39
1.6069365 0.93335515 3.8159995 2.3110649e-39
1.6054944 0.87536931 3.8160012 2.0359227e-39
1.5936135 0.87676305 3.7740004 1.2086802e-39
1.6039836 0.82972699 3.816 2.0344808e-39
1.5980248 0.83044356 3.7740002 1.8519014e-39
1.6011733 0.77884173 3.8160014 1.9415593e-39
1.5823554 0.87648439 3.8160002 2.4932911e-39
1.5817828 0.88157552 3.7740006 2.5858497e-39
1.581612 0.82704729 3.8160002 2.1248701e-39
1.57901 0.77946895 3.8160007 1.9404719e-39
1.6156511 0.75055534 3.8590007 1.5727838e-39
1.6024275 0.75019699 3.8160002 1.6656969e-39
1.5823553 0.75270599 3.8160002 1.9412005e-39
1.3260065 0.71216983 3.3990002 5.25806e-39
1.3097925 0.69914603 3.3650002 4.8903635e-39
1.294415 0.69249743 3.3330002 4.8903691e-39
1.3014089 0.58147132 3.3247502 5.9999803e-39
1.2818811 0.68009371 3.3082502 4.3375554e-39
1.2718524 0.67117584 3.2690003 4.1528041e-39
1.2409015 0.6505419 3.2690001 2.5862042e-39
1.2830455 0.5858326 3.2999997 5.6315607e-39
1.2642375 0.57562113 3.2690008 5.5393623e-39
1.2518432 0.65572739 3.2380002 3.415609e-39
1.2486215 0.63171911 3.2296665 4.4315658e-39
1.2480583 0.58646429 3.2379999 5.2631341e-39
1.2310377 0.62722737 3.2144284 4.6152199e-39
1.2032984 0.61756331 3.1715555 3.4159677e-39
1.2276945 0.58243757 3.2115295 4.9865444e-39
1.2063854 0.58786184 3.1722 5.0783757e-39
1.1732504 0.58294612 3.1115997 4.4322748e-39
1.1469675 0.57214069 3.0640004 4.8003315e-39
1.1277013 0.56979668 3.0302501 2.5869175e-39
1.1002785 0.56661981 2.9840002 2.4922121e-39
1.2580965 0.55310392 3.2690001 5.6311978e-39
1.2404885 0.54785877 3.2380002 5.3549696e-39
1.2221421 0.54147786 3.2113335 4.8954292e-39
1.193961 0.53261489 3.15625 5.0787344e-39
1.1843075 0.53832155 3.1490002 4.9858283e-39
1.1640198 0.52799135 3.1095009 4.8021475e-39
1.1429384 0.54259354 3.0640001 4.526634e-39
1.1596832 0.49810043 3.1000004 4.7103148e-39
1.1415954 0.4888714 3.0640001 4.4344538e-39
1.1362231 0.48618531 3.0640001 4.4340825e-39
1.1211598 0.52585816 3.0262005 4.4347986e-39
1.0966741 0.52755469 2.9840002 4.7099435e-39
1.1126786 0.49048549 3.0201254 4.4344412e-39
1.0920682 0.48516244 2.9840007 4.5259194e-39
1.0908608 0.45256338 2.9840002 4.6177451e-39
1.0792556 0.56733483 3.0100002 2.7877572e-40
1.0787628 0.56272006 2.9580002 2.7732397e-40
1.0796273 0.51950037 2.9580002 4.5255564e-39
1.0773907 0.47607267 2.9693756 4.6173905e-39
1.0582478 0.53452182 2.9195387 3.1400941e-39
1.0506886 0.47330758 2.918417 4.5251949e-39
1.021008 0.52455282 2.8705204 2.7698626e-39
1.0375841 0.45633304 2.9080002 4.2486164e-39
1.0220233 0.47961017 2.8699105 4.156411e-39
1.0729387 0.45122859 2.9654291 4.4337182e-39
1.0506182 0.44482857 2.9330001 4.4333538e-39
1.0341849 0.43593827 2.9080002 4.3404407e-39
1.0147551 0.4364877 2.8739998 4.4315531e-39
0.99761951 0.51347333 2.835 3.4155977e-39
0.9984895 0.47842991 2.8349996 4.339719e-39
0.99165452 0.43355548 2.835 3.9723785e-39
0.99165463 0.40511206 2.835 4.7059778e-39
0.98171324 0.50949675 2.835 1.8482706e-39
0.98525292 0.48838085 2.812 4.0642126e-39
0.9583444 0.47705752 2.7696316 4.0642098e-39
0.92392224 0.48166373 2.751667 1.5673607e-39
0.91731322 0.46742019 2.7133749 3.6925392e-39
0.89749622 0.45814601 2.6800001 3.5085052e-39
0.98119277 0.4304463 2.821583 3.9720183e-39
0.95476645 0.43154913 2.771594 3.9716554e-39
0.97867912 0.39936024 2.812 4.6137808e-39
0.95433366 0.3922514 2.7791007 4.2460787e-39
0.93576801 0.41135305 2.7440002 4.1549691e-39
0.92958224 0.38317347 2.7439997 3.9702163e-39
0.91955549 0.42808002 2.7098 3.7876243e-39
0.90102053 0.43450448 2.6800001 3.7883431e-39
0.90611136 0.38092098 2.7063334 3.8783808e-39
0.891231 0.39392725 2.6800001 4.3371995e-39
0.89742523 0.35281363 2.7010002 4.1538831e-39
0.87848222 0.46173593 2.7010002 5.5466056e-40
0.88104993 0.45814601 2.6800001 6.4937993e-40
0.8841365 0.42974693 2.6590002 3.5113975e-39
0.87961918 0.37774441 2.6704547 3.9702163e-39
0.85854375 0.42560545 2.6177495 3.6943454e-39
0.85372555 0.38303664 2.6207576 4.061693e-39
0.83204746 0.43179512 2.6060002 1.570246e-39
0.82093471 0.41360602 2.5612667 4.0631252e-39
0.83587188 0.36934757 2.5979998 4.1535285e-39
0.81492126 0.38110828 2.5552509 3.8783808e-39
0.79400861 0.38152763 2.5219998 4.1542446e-39
0.78775251 0.40594488 2.503 2.2163329e-39
0.78307748 0.37878436 2.5049 4.2457157e-39
0.76091969 0.38097721 2.4676225 3.4141656e-39
0.87605023 0.34909058 2.6695001 4.4293937e-39
0.85053486 0.34212005 2.622889 4.0624119e-39
0.83587188 0.34619218 2.598 4.0627748e-39
0.81117845 0.32935178 2.5600004 3.9698575e-39
0.80047429 0.30185169 2.5505002 4.1528069e-39
0.77973753 0.32983765 2.5124998 4.1531698e-39
0.75347722 0.33057204 2.4673333 4.2450053e-39
0.77973765 0.29735437 2.5125 4.1528069e-39
0.7519995 0.28984705 2.4688997 4.1524509e-39
0.73670685 0.30714017 2.45 3.9720253e-39
0.73553526 0.28312349 2.4500003 4.1528083e-39
0.7241683 0.25431618 2.4584999 3.970575e-39
0.73982251 0.36756599 2.4320002 4.2460801e-39
0.7217409 0.3684997 2.4105265 3.0446558e-39
0.70030373 0.35832727 2.3810003 3.1361368e-39
0.72139227 0.32952264 2.4060276 4.1531684e-39
0.70130914 0.33316061 2.3797698 4.1538859e-39
0.71391696 0.28022167 2.4131522 4.1531656e-39
0.69299805 0.28033018 2.3810003 4.3368352e-39
0.70714301 0.24983861 2.415 3.7861837e-39
0.69258052 0.24922879 2.381 3.9698491e-39
0.5997808 0.81878823 2.1524661 2.7694983e-39
0.60374272 0.78037184 2.1595817 3.5999876e-39
0.59692061 0.83211058 2.1224999 1.9404649e-39
0.5854153 0.83266342 2.1505001 5.7194235e-39
0.58783132 0.79899395 2.1700001 6.9179485e-39
0.58722484 0.83374435 2.1238003 3.1393696e-39
0.6542151 0.65225053 2.2410002 6.3702356e-39
0.64952832 0.57894266 2.2442615 6.2758385e-39
0.63849825 0.58545381 2.2410002 5.9992432e-39
0.6418708 0.65738428 2.2120001 6.9240932e-39
0.60359693 0.72920722 2.1544528 2.5858399e-39
0.60408729 0.66623032 2.1980002 2.8635016e-39
0.60892624 0.68349934 2.1764376 3.6921804e-39
0.64455247 0.63677424 2.2190001 6.6460756e-39
0.64281094 0.58426714 2.2260001 6.3673223e-39
0.61751145 0.62954992 2.2058299 4.1538929e-39
0.60923851 0.65136051 2.184 3.6968538e-39
0.61805397 0.58087999 2.2219758 4.2453612e-39
0.58651507 0.73029971 2.1661372 5.1676945e-39
0.58781087 0.68964267 2.1653335 3.3241336e-39
0.64606452 0.53287655 2.2422504 6.6442581e-39
0.64620405 0.47983602 2.270375 9.6848922e-39
0.62145984 0.52683699 2.2409992 3.8776633e-39
0.62397963 0.48280513 2.2557418 4.4304741e-39
0.66515064 0.37273148 2.3490002 3.9730819e-39
0.65130424 0.40993875 2.3058 4.8925355e-39
0.64773589 0.43479687 2.2774284 5.6290215e-39
0.65036589 0.38088104 2.3159342 4.0642112e-39
0.62389922 0.42968813 2.2666748 4.3375554e-39
0.63393229 0.37971577 2.3010004 4.2482437e-39
0.61136621 0.3813301 2.2615829 4.6159472e-39
0.64203036 0.54836029 2.2260001 5.9999817e-39
0.62701494 0.54155725 2.2260005 5.7208528e-39
0.59129238 0.37311915 2.2260001 3.8762242e-39
0.58052593 0.37648779 2.2044623 4.4290294e-39
0.55695623 0.37486783 2.1664727 3.8765787e-39
0.53762037 0.37511307 2.1430001 1.9390369e-39
0.52409905 0.36304247 2.1159999 3.7840159e-39
0.49867523 0.35953072 2.0747499 1.5695145e-39
0.68425339 0.32868031 2.3538001 4.2449983e-39
0.67974925 0.28247645 2.357321 4.2450039e-39
0.66088241 0.33406672 2.3201311 3.5992659e-39
0.6428023 0.31864554 2.286 3.7847362e-39
0.65706724 0.27870035 2.316031 4.1531656e-39
0.64107656 0.28947532 2.286 4.3372009e-39
0.63441253 0.34343001 2.3010001 3.2319408e-39
0.61375201 0.33158356 2.2606683 3.6925518e-39
0.62318933 0.27863413 2.261234 4.2450011e-39
0.6792621 0.24611251 2.3614445 4.0613245e-39
0.65118003 0.23933759 2.3153453 4.1528041e-39
0.63582456 0.22269997 2.3010001 4.0606098e-39
0.61671776 0.23271231 2.2626019 4.1531642e-39
0.60734677 0.19814272 2.2476668 4.3361107e-39
0.59968287 0.31205174 2.2209091 2.3085341e-39
0.60018796 0.28415608 2.2193687 4.3368352e-39
0.59291738 0.2222615 2.2204001 4.2450011e-39
0.59296507 0.19653991 2.2260001 4.1520852e-39
0.57957238 0.33102101 2.2138071 4.1531684e-39
0.54810941 0.33835757 2.1646082 4.340075e-39
0.58099627 0.28912878 2.1993339 3.2312037e-39
0.56276196 0.27519399 2.1679795 3.6914658e-39
0.534675 0.3220413 2.14625 4.6148626e-39
0.53580016 0.29679123 2.1495001 3.9691345e-39
0.54163605 0.26391226 2.1290002 3.7847362e-39
0.51659304 0.3306931 2.1095002 4.7992553e-39
0.49658725 0.33261919 2.0647726 5.1669546e-39
0.51834518 0.27912983 2.1086869 3.5070731e-39
0.49558887 0.27979121 2.0732627 3.8758612e-39
0.58084047 0.22461104 2.2050009 4.1531656e-39
0.55726206 0.2318227 2.1616838 4.3371967e-39
0.57615685 0.1942787 2.2073333 4.2442822e-39
0.54995722 0.18885219 2.1634343 4.1531628e-39
0.53730726 0.20853533 2.1430001 4.1528069e-39
0.5355677 0.1810507 2.1429999 4.1535215e-39
0.54163605 0.24450147 2.1290002 4.3372037e-39
0.52248555 0.22788368 2.1053631 4.337554e-39
0.50065821 0.23365554 2.0662496 4.4290252e-39
0.51774919 0.17921452 2.112891 4.3371925e-39
0.49417415 0.18367788 2.0605628 4.4293853e-39
0.48594511 0.35815954 2.0530002 2.5829392e-39
0.48379976 0.32384932 2.0448751 4.4304699e-39
0.48004219 0.27903268 2.0514851 4.4297539e-39
0.48473021 0.23319077 2.0423639 3.599982e-39
0.48375446 0.17838466 2.0473483 4.3375568e-39
0.51102173 0.14777163 2.1043005 4.4290252e-39
0.49313027 0.14229089 2.0650001 4.4290252e-39
0.48402396 0.14000477 2.0518334 4.4290252e-39
0.46465313 0.32865286 2.0190232 4.0598797e-39
0.44328722 0.31383991 1.9762858 5.9034336e-39
0.45396382 0.28318766 2.0119109 4.8907278e-39
0.44111586 0.2995767 1.9810001 4.4326349e-39
0.42620504 0.31791866 1.9539335 3.1364689e-39
0.43767279 0.26470029 1.9930001 4.8907222e-39
0.42508847 0.28017896 1.9613667 5.1673133e-39
0.41261467 0.30908382 1.9360002 3.1364703e-39
0.40164968 0.28171399 1.9195466 5.2584271e-39
0.46455291 0.23330475 2.0120175 3.7836586e-39
0.44481653 0.2208382 1.9725388 3.3237594e-39
0.4624497 0.17793417 2.0077174 4.5215838e-39
0.44485968 0.18400264 1.975867 4.6137794e-39
0.43694478 0.24562673 1.9930001 4.5219411e-39
0.42268088 0.23156978 1.9568939 3.96841e-39
0.43226844 0.18029049 1.95469 4.6137794e-39
0.40315092 0.22523546 1.9280859 3.8762102e-39
0.4065831 0.18253787 1.913781 4.4293811e-39
0.39123091 0.18323474 1.883 4.9818318e-39
0.38514405 0.27866334 1.8955386 4.4282993e-39
0.36777458 0.2751587 1.8685114 4.8892733e-39
0.38258302 0.2277561 1.90344 4.798528e-39
0.36130622 0.23367913 1.8663342 5.2591404e-39
0.38180128 0.19971003 1.8940001 2.3081656e-39
0.36905679 0.17770852 1.8625717 3.8762003e-39
0.34548995 0.26474172 1.8330001 6.455157e-39
0.32943267 0.26701 1.806381 3.4112509e-39
0.31453747 0.25709239 1.7827501 4.9775018e-39
0.34027115 0.24009372 1.8280001 5.5353672e-39
0.34841692 0.16545111 1.8245385 4.4290154e-39
0.32708815 0.23401459 1.8073534 5.627567e-39
0.30297336 0.23139957 1.7687628 5.7186752e-39
0.32580519 0.17449069 1.8081434 3.9680344e-39
0.30509797 0.16870569 1.7725337 3.8754829e-39
0.20590445 0.56787664 1.4960001 8.6649879e-39
0.19489309 0.56520885 1.478 6.6406301e-39
0.17872697 0.56523919 1.4568892 5.8115869e-39
0.17030564 0.56579322 1.439 5.0751121e-39
0.2886045 0.24263212 1.748 4.8874558e-39
0.28566936 0.18370087 1.7505714 5.7190353e-39
0.27340299 0.22244099 1.719133 5.6257579e-39
0.24827734 0.21632655 1.6756524 5.5331881e-39
0.27261409 0.19455861 1.7248 5.9952579e-39
0.2447374 0.1836718 1.6794002 6.1796478e-39
0.23306075 0.21314788 1.6542728 4.7938182e-39
0.23066738 0.17899528 1.6559525 6.3633145e-39
0.19836336 0.51377755 1.4960001 7.7476895e-39
0.19419847 0.5322237 1.4856398 7.1934424e-39
0.19803171 0.47792152 1.5084399 7.6544177e-39
0.19384545 0.50125694 1.4890001 7.3771119e-39
0.20446938 0.37081331 1.5446893 7.8362908e-39
0.19961758 0.42755693 1.521811 7.9299256e-39
0.19662005 0.38728312 1.5306057 7.5611417e-39
0.17623666 0.53116137 1.4645473 7.2863554e-39
0.18470408 0.47147289 1.4993336 7.470381e-39
0.17415901 0.48366234 1.4764364 7.7466175e-39
0.18053155 0.42987031 1.5026591 7.5629423e-39
0.16871758 0.43135345 1.4798399 7.9317291e-39
0.17932342 0.38021225 1.5133549 7.5622179e-39
0.16433106 0.38842681 1.4636663 8.0232016e-39
0.16309695 0.53038049 1.439 7.6547764e-39
0.10007111 0.51347029 1.3933333 9.868189e-39
0.11045837 0.52440184 1.3754538 1.0237333e-38
0.10848428 0.47711259 1.3966154 1.0696873e-38
0.12152773 0.48413986 1.38247 1.0789068e-38
0.14834042 0.42791015 1.4168001 9.8667583e-39
0.14815423 0.37541834 1.4257609 9.3139376e-39
0.11966764 0.430383 1.4036502 1.1065296e-38
0.12196874 0.3805683 1.416532 1.1249326e-38
0.20113695 0.32916614 1.5519271 7.5607801e-39
0.20032793 0.28317514 1.5686373 7.5607731e-39
0.18986496 0.34404606 1.536 7.4689362e-39
0.21051528 0.21947747 1.6067077 6.913966e-39
0.20102699 0.23235729 1.5819608 6.6380966e-39
0.20761161 0.18116608 1.6176137 6.8239284e-39
0.19192792 0.18439849 1.5843849 6.7324544e-39
0.18712305 0.31247294 1.5430001 7.4689404e-39
0.1824287 0.27488455 1.546733 7.1930738e-39
0.17749131 0.32909253 1.5241113 7.4700208e-39
0.15598033 0.32049304 1.4564518 7.930999e-39
0.1727372 0.28281826 1.5262563 7.4700208e-39
0.15155882 0.27812704 1.458293 8.8525937e-39
0.11337712 0.31120646 1.4450001 1.1249686e-38
0.12337607 0.27408925 1.4497253 1.124968e-38
0.18057835 0.23031378 1.5574594 7.1012355e-39
0.17946507 0.1797464 1.5675877 7.0086783e-39
0.16551003 0.22804777 1.5086664 7.5622151e-39
0.14997688 0.23108251 1.4715672 9.3132118e-39
0.16258372 0.18401219 1.5076919 7.5611347e-39
0.1480988 0.18020673 1.4811302 9.5894413e-39
0.12917554 0.23000164 1.4621491 1.1157126e-38
0.13156627 0.18189941 1.4783783 1.0880537e-38
0.14673196 0.33398694 1.4315404 9.7741955e-39
0.14160599 0.28967729 1.439 1.1617742e-38
0.12439848 0.33111435 1.4311806 1.1249682e-38
0.13061272 0.29001522 1.4389995 1.1341516e-38
0.45844886 0.1372658 2.0098946 4.4297427e-39
0.44092289 0.13603966 1.9810001 4.4297427e-39
0.42625061 0.1309258 1.9552897 4.6130563e-39
0.42159688 0.10355011 1.9470001 4.3371827e-39
0.40284044 0.12937254 1.9185181 4.7970832e-39
0.39742979 0.095585659 1.9170003 4.7052464e-39
0.38687477 0.13034192 1.8940001 4.9803969e-39
0.36896709 0.1269334 1.8600698 4.889639e-39
0.3809903 0.089597143 1.8950001 4.4301014e-39
0.35948423 0.087889284 1.8591231 4.797442e-39
0.34815621 0.13259351 1.8245628 4.9825521e-39
0.34238502 0.081899837 1.8290001 4.8892775e-39
0.33258086 0.12800732 1.80371 5.1662217e-39
0.31214151 0.13241306 1.7639828 4.8896306e-39
0.32866946 0.077765577 1.8083043 4.8896362e-39
0.3062461 0.081134051 1.7649208 5.1655014e-39
0.29543796 0.13042942 1.7344441 4.8889061e-39
0.29135725 0.083608948 1.7370001 5.2580502e-39
0.31858331 0.050472327 1.799 4.5229991e-39
0.2994799 0.045375243 1.7637225 4.8899879e-39
0.28501463 0.15190813 1.75025 3.4148593e-39
0.27696911 0.1276601 1.7131494 4.2435325e-39
0.2532458 0.1195999 1.6737949 4.3360855e-39
0.27681959 0.078795925 1.7153059 5.3502486e-39
0.25146595 0.081110604 1.6646559 5.6264712e-39
0.22691955 0.13476695 1.6547425 4.6130423e-39
0.23650546 0.063095354 1.6483334 5.6268229e-39
0.28656128 0.029115854 1.748 5.2569684e-39
0.2719183 0.037276007 1.7166042 5.0736617e-39
0.24886534 0.031068247 1.676975 5.2576859e-39
0.23335947 0.03016882 1.6509994 5.2583991e-39
0.23176244 0.0023186081 1.6502001 4.8896222e-39
0.23899716 0.10057997 1.6390002 5.8112156e-39
0.21016422 0.12614681 1.6216531 4.6115962e-39
0.21951011 0.082473233 1.6165071 5.5335497e-39
0.19760109 0.077138618 1.5786746 5.6260956e-39
0.21096636 0.029613564 1.6171696 5.6264642e-39
0.19299102 0.036987856 1.5819477 5.9945278e-39
0.204135 -0.0046224277 1.6149354 5.4420715e-39
0.18720073 0.12752628 1.5940001 6.3633103e-39
0.1793164 0.13940772 1.5767003 6.7320929e-39
0.18701959 0.10107909 1.5940001 3.504192e-39
0.17945907 0.080737114 1.5581107 5.2569614e-39
0.15543064 0.12784415 1.5088459 7.9306374e-39
0.14515702 0.14428082 1.4878002 1.0327351e-38
0.15593776 0.0796922 1.5146627 7.1012355e-39
0.13254826 0.11777212 1.4960002 1.005078e-38
0.13349567 0.14236362 1.4876366 1.0328085e-38
0.13462378 0.079285525 1.5040835 9.036985e-39
0.17924073 0.02793991 1.5591522 6.0870836e-39
0.18864989 -0.0055896267 1.5940001 5.7182955e-39
0.1755227 -0.013050289 1.5617015 5.8101352e-39
0.15515305 0.030912852 1.5164089 7.4696579e-39
0.15196434 -0.018312367 1.5230986 7.1005194e-39
0.13485846 0.03567569 1.5091202 8.576367e-39
0.13668269 -0.018675381 1.5231 7.2856268e-39
-0.14818077 -0.078815557 1.0443335 1.2539292e-38
-0.13536762 -0.12954873 1.0474827 1.1340767e-38
-0.13663679 -0.17014506 1.0520978 9.9582e-39
-0.14783829 -0.082311198 1.0216875 1.0971265e-38
-0.14873599 -0.11907844 1.0184623 1.198614e-38
-0.16159619 -0.086727537 0.99575007 9.4957855e-39
-0.17186661 -0.090907365 0.97767955 7.4678404e-39
-0.16313842 -0.12296242 0.99385375 1.2263081e-38
-0.17928168 -0.11863437 0.96434349 1.1801025e-38
-0.20238873 -0.12299936 0.92495978 1.0786875e-38
-0.15304667 -0.16767538 1.0213642 1.0695405e-38
-0.15699364 -0.19706391 1.0207144 9.6816173e-39
-0.16556887 -0.1740095 0.99874538 1.0787961e-38
-0.1844517 -0.16954458 0.96511149 1.1248939e-38
-0.16752328 -0.20089567 0.99836516 9.86601e-39
-0.18891577 -0.20707878 0.96196079 1.0050037e-38
-0.20521238 -0.16713059 0.92735159 1.1709918e-38
-0.2069333 -0.20816839 0.93183607 1.0234794e-38
-0.21852405 -0.12311514 0.90289676 8.2979556e-39
-0.23789531 -0.13285525 0.86814964 9.1277121e-39
-0.21999601 -0.1713054 0.90302503 1.1802476e-38
-0.24142182 -0.16988532 0.86506516 1.1895034e-38
-0.22393081 -0.21582392 0.90711659 1.0051122e-38
-0.24863544 -0.21850647 0.86615705 1.0051484e-38
-0.263724 -0.23206711 0.84377873 9.4990295e-39
-0.2574271 -0.13959943 0.83477044 7.4681921e-39
-0.26964712 -0.14041601 0.82106483 3.1350031e-39
-0.25685611 -0.16309962 0.83427918 1.217162e-38
-0.25963974 -0.20521101 0.83900005 1.0697207e-38
-0.27519742 -0.17092098 0.80957174 1.0788685e-38
-0.29837289 -0.17265223 0.77336514 9.3139166e-39
-0.27933466 -0.21994282 0.81527925 1.01444e-38
-0.30196524 -0.21837068 0.77667624 1.0145482e-38
-0.31569448 -0.17553541 0.74995935 7.377807e-39
-0.31722918 -0.22247535 0.75226593 1.0053649e-38
-0.33502373 -0.18274431 0.71727091 6.8253535e-39
-0.35439774 -0.19069216 0.68041897 5.9955802e-39
-0.33636215 -0.21977158 0.71448052 1.0423152e-38
-0.35477769 -0.21772385 0.67947012 1.1070321e-38
-0.36435121 -0.19168144 0.67140728 1.9382648e-39
-0.36557016 -0.22092327 0.66397089 9.8710603e-39
-0.25493434 -0.24969499 0.86464661 8.5767159e-39
-0.26591116 -0.25337657 0.84760612 8.3930449e-39
-0.28756174 -0.25905308 0.81064707 8.3012094e-39
-0.30681226 -0.26582947 0.77987647 8.1168196e-39
-0.32046977 -0.26820627 0.75515193 8.0249869e-39
-0.3404769 -0.26546514 0.71538848 8.0260659e-39
-0.35703957 -0.25803033 0.68325996 8.2115361e-39
-0.36748222 -0.2563414 0.67012304 8.1197062e-39
2.642987 2.1153319 5.3740001 1.6329856e-38
2.6948557 2.1300371 5.46 1.3287416e-38
2.8034747 2.1607027 5.6400003 1.2821711e-38
2.8602529 2.1766074 5.7340002 1.1988714e-38
2.8602529 2.1766074 5.7340002 1.1988714e-38
2.919363 2.1626806 5.8320003 1.1067834e-38
2.9595189 2.033694 5.9330001 9.5037505e-39
2.9595189 1.9504738 5.9330001 8.0286204e-39
3.0118952 1.8473663 6.0380001 7.842074e-39
3.0980961 1.8804097 6.1460004 6.7751239e-40
3.2135313 1.9057637 6.3750005 1.8807485e-39
3.2864208 1.9764091 6.4970002 1.5771952e-38
3.2864208 1.9422349 6.4970002 1.9278277e-38
3.3496504 1.8518864 6.6220002 2.3204732e-39
3.3496504 1.8170547 6.6220002 1.1179363e-39
3.2750294 1.7713637 6.4970002 8.3027088e-39
3.1440835 1.6845264 6.2590003 9.2261042e-39
3.0013087 1.5615274 6.0380001 4.8936355e-39
2.8682358 1.477576 5.8320003 1.9089585e-38
2.7441421 1.3992652 5.6400003 1.531859e-38
2.7441421 1.3992652 5.6400003 1.531859e-38
2.6469898 1.364181 5.46 1.4767218e-38
2.6182702 1.3546078 5.46 1.2546922e-38
2.642987 2.1153319 5.3740001 1.6329856e-38
2.7480168 2.1351848 5.5480003 1.3191923e-38
2.7188344 1.9211799 5.5480003 1.2916078e-38
2.7836971 1.9629267 5.6400003 1.2913557e-38
2.8401458 1.9855887 5.7340002 1.226673e-38
2.9091377 1.8763683 5.8320003 7.5654969e-39
2.9091377 1.8150156 5.8320003 7.750977e-39
2.9387138 1.7112156 5.9330001 7.1956354e-39
2.9283113 1.5655802 5.9330001 4.3418686e-39
2.8580105 1.5184778 5.8320003 4.7059778e-39
2.7999313 1.4628007 5.7340002 4.9864771e-39
2.7639196 1.4190428 5.6400003 2.0382456e-38
2.689652 1.3958952 5.5480003 1.0244202e-38
-0.37000504 -0.26529774 0.671 7.7509195e-39
-0.37056568 -0.23776603 0.66150004 9.2257049e-39
-0.3702856 -0.23352909 0.66100001 9.7788759e-39
-0.36150229 -0.19082579 0.67600006 1.6624052e-39
-0.35630056 -0.18331525 0.69316673 1.0173903e-39
-0.28083578 -0.14290631 0.81100005 2.1176324e-39
-0.2702772 -0.13623136 0.83100003 2.1204995e-39
-0.246168 -0.12649249 0.86400002 1.7549638e-39
-0.24550261 -0.12541156 0.86700004 1.8471594e-39
-0.17404814 -0.088310137 0.97800004 6.6402714e-39
-0.16560146 -0.08410126 0.98900002 7.2856408e-39
-0.13687748 -0.073424339 1.034 1.3921149e-38
-0.13597889 -0.093998827 1.041 1.2264164e-38
-0.13002107 -0.18240365 1.0670002 1.0418106e-38
-0.13304481 -0.18700768 1.0612859 9.5886916e-39
-0.13806887 -0.18810724 1.057 9.4057465e-39
-0.15186058 -0.19678974 1.0250001 9.5904965e-39
-0.16585569 -0.20622268 1.001 9.2213623e-39
-0.16752253 -0.20656341 0.9970001 9.5890616e-39
-0.23745744 -0.24136299 0.89100003 8.6696276e-39
-0.25160334 -0.25237042 0.87500006 8.6685402e-39
-0.31710437 -0.28146788 0.76700002 7.5636444e-39
-0.33026662 -0.292335 0.74600005 7.1030292e-39
-0.36052567 -0.2678532 0.68200004 7.9338674e-39
2.1972334 1.3685626 4.7740002 1.8124394e-41
2.1378613 1.3152937 4.6450005 1.8566098e-39
2.1008317 1.2813869 4.5820003 8.371357e-42
2.092798 1.2813869 4.5820003 8.0112233e-42
2.0574648 1.2328931 4.5220003 4.4056824e-42
2.0574648 1.217036 4.5220003 1.5288166e-42
2.1008317 1.2251505 4.5820003 1.6636215e-41
2.1460054 1.290861 4.6450005 1.1069313e-38
0.16848218 0.56245178 1.4450001 6.4573263e-39
0.1085664 0.52353132 1.376 9.9625525e-39
0.10977269 0.51267469 1.376 1.0696866e-38
0.11348976 0.46494192 1.3920001 1.0789076e-38
0.11888126 0.4166972 1.3980001 1.115713e-38
0.12156737 0.36346161 1.4150001 1.134223e-38
0.12885334 0.32901388 1.427 1.1249687e-38
0.1299369 0.27375057 1.439 1.1433353e-38
0.13238367 0.22657976 1.452 1.1248963e-38
0.14171053 0.14821102 1.483 1.0879803e-38
0.14228387 0.12923031 1.4890001 1.0052566e-38
0.14032979 0.043279279 1.4960001 8.6692787e-39
0.15018001 -0.0079741599 1.516 8.4816448e-39
0.15150905 -0.041199826 1.516 7.3767392e-39
0.16638169 -0.036522809 1.5430001 5.3498703e-39
0.20312016 -0.015516123 1.6090001 5.7175864e-39
0.21603872 -0.0071536 1.6320001 5.349164e-39
0.28962612 0.032180678 1.748 4.8910571e-39
0.2988013 0.037156641 1.766 4.9814703e-39
0.37472329 0.077585876 1.8830001 4.2453374e-39
0.38189355 0.07803911 1.8940001 4.5204978e-39
0.44902954 0.11706217 1.9930001 4.3386246e-39
0.47113821 0.12800735 2.0280001 4.6126948e-39
0.49059582 0.13215311 2.0650001 4.7045373e-39
0.5106855 0.1419595 2.1030002 4.7048904e-39
0.57787764 0.18810111 2.2120001 4.1528069e-39
0.59920603 0.19056717 2.2410002 4.4283021e-39
0.63542116 0.21180704 2.3010001 3.969489e-39
0.65202695 0.22140479 2.3170002 4.5197915e-39
0.68673593 0.24004447 2.381 3.969489e-39
0.70004815 0.24596286 2.398 3.5117562e-39
0.72451675 0.25304019 2.467 3.6961489e-39
0.80569172 0.30297601 2.5600002 4.2450025e-39
0.84042704 0.32569394 2.598 4.2446466e-39
0.89742523 0.35281363 2.7010002 4.154239e-39
0.92614573 0.36805272 2.7440002 4.3372009e-39
0.94361156 0.37598917 2.7670002 4.3371981e-39
1.0134994 0.41702595 2.8830001 4.8903719e-39
1.022288 0.4155435 2.9080002 4.7981763e-39
1.080397 0.45256338 2.9840002 4.3418869e-39
1.1362231 0.48081309 3.0640001 4.5262781e-39
1.1734008 0.4950712 3.1200001 5.1702028e-39
1.2404885 0.54218149 3.2380002 5.3560444e-39
1.2580965 0.55310392 3.2690001 5.6311978e-39
1.3002589 0.58146405 3.3330002 6.0914556e-39
1.3260065 0.71216983 3.3990002 5.25806e-39
1.294415 0.69249743 3.3330002 4.8903691e-39
1.281599 0.67985499 3.3000002 4.4297511e-39
1.2461659 0.65572739 3.2380002 3.6914756e-39
1.1898286 0.61009777 3.1490002 4.3372009e-39
1.1679304 0.60447919 3.1200001 5.5571433e-40
1.16246 0.60447919 3.1200001 3.7132307e-40
1.1628703 0.59363306 3.0920002 4.7996252e-39
1.0960928 0.57289815 2.9840002 7.3869729e-40
1.0709833 0.56272006 2.9580002 1.8622416e-40
1.0050623 0.52383548 2.8590002 3.9979045e-42
0.99165463 0.51446742 2.835 3.7315317e-40
0.90950924 0.4750455 2.723 2.8023447e-40
0.90689677 0.47120744 2.7010002 1.4787777e-39
0.84689683 0.43836665 2.618 2.1241345e-39
0.83587188 0.43046263 2.598 2.7695039e-39
0.80416721 0.41210786 2.5410001 3.5999834e-39
0.78775251 0.40594488 2.503 2.2163329e-39
0.73129427 0.38163754 2.4320002 1.2904431e-39
0.72194815 0.37473553 2.4150002 1.2914997e-39
0.6513195 0.44289726 2.286 5.6293831e-39
0.65463853 0.56761712 2.256 6.0921773e-39
0.65859407 0.57750595 2.256 6.7371684e-39
0.6542151 0.65225053 2.2410002 6.3702356e-39
0.62587863 0.7742632 2.1700001 6.1832785e-39
0.61176026 0.81211013 2.1560001 3.7203914e-40
0.59178942 0.84729218 2.1430001 2.7709486e-39
0.59178942 0.84729218 2.1430001 2.7709486e-39
0.58804345 0.82734191 2.1160002 3.3234035e-39
0.59178942 0.7383278 2.1430001 3.4138041e-39
0.59159923 0.68232369 2.1560001 4.0591315e-39
0.60311162 0.64906293 2.184 1.1182418e-39
0.59145194 0.55654657 2.2120001 3.4163152e-39
0.5519073 0.38368896 2.1560001 1.8731157e-40
0.49134448 0.35096034 2.0530002 3.2972553e-42
0.47824973 0.35024235 2.0280001 1.8468091e-39
0.44285256 0.32302186 1.9810001 4.2428109e-39
0.37601724 0.29063341 1.8730001 3.1364647e-39
0.35738194 0.28753 1.853 9.2414092e-40
0.3018977 0.25545189 1.766 9.5082305e-41
0.30035916 0.24336793 1.7570001 6.179666e-39
0.2560077 0.22197199 1.6880001 5.8108554e-39
0.21179126 0.30038369 1.5790001 8.3880002e-39
0.20654267 0.3872675 1.5500001 8.9429887e-39
0.19760418 0.4486149 1.5230001 7.5607801e-39
0.20294483 0.46730718 1.5230001 8.1139539e-39
0.19016653 0.50754791 1.4960001 7.469288e-39
0.1881502 0.5812037 1.47 4.4282993e-39
0.18150157 0.57645917 1.4580001 4.4308203e-39
1.9089986 0.8999027 4.2950001 9.968749e-39
1.810904 0.72362697 4.1900001 4.0602427e-39
1.7672522 0.81372464 4.0890002 8.124451e-39
1.7191907 0.80182213 3.9940002 8.2152145e-39
1.6924682 0.78566515 3.9480002 8.6765458e-39
1.613718 0.74765551 3.8590002 2.3074719e-39
1.5957367 0.74601525 3.8160002 2.583333e-39
1.5957367 0.74601525 3.8160002 2.583333e-39
1.589046 0.76608741 3.8160002 2.4922065e-39
1.5980248 0.83044356 3.7740002 1.8519014e-39
1.5781735 0.89661431 3.7740002 2.6780467e-39
1.5847907 0.99587053 3.7740002 2.3135802e-39
1.5847907 1.0223389 3.7740002 2.8624422e-39
1.5980248 1.1811488 3.7740002 2.5901671e-39
1.611259 1.2804049 3.7740002 2.5905202e-39
1.6244931 1.3862783 3.7740002 3.1390249e-39
1.6244931 1.4061295 3.7740002 3.1390221e-39
1.6492624 1.4819945 3.8160002 3.139378e-39
1.6626439 1.5087574 3.8160002 2.8660309e-39
1.6813792 1.4986941 3.8590002 2.4068702e-39
1.7478454 1.5055698 3.9480002 9.5084519e-39
1.8102684 1.5019851 4.0890002 1.3379599e-38
1.8396614 1.5421224 4.1390004 1.3382152e-38
1.8849972 0.91833198 4.2410002 9.2318846e-39
1.8476363 1.0174856 4.1900001 1.2643141e-38
1.8106332 1.005101 4.1390004 1.2918642e-38
1.7815909 0.99295914 4.0890002 1.3010838e-38
1.7201568 1.1802282 3.9480002 2.1392996e-38
1.7201568 1.1940726 3.9480002 1.3757386e-38
1.7542048 1.2990218 3.9940002 8.867093e-39
1.789018 1.4914387 4.0410004 1.2183589e-38
