# .PCD v0.7 - Point Cloud Data file format
VERSION 0.7
FIELDS x y z rgb
SIZE 4 4 4 4
TYPE F F F F
COUNT 1 1 1 1
WIDTH 177
HEIGHT 1
VIEWPOINT 0 0 0 1 0 0 0
POINTS 177
DATA ascii
0.71599925 0.1180611 1.4665583 4.6123389e-39
0.59539467 0.4168134 1.2677492 9.316474e-39
0.66580606 0.31187442 1.3650708 6.2718574e-39
0.65206796 0.36684144 1.3324689 6.7331929e-39
0.65408432 0.33038586 1.3432503 6.6406371e-39
0.63950378 0.3623088 1.312 6.6413532e-39
0.59966689 0.37321672 1.2810125 9.408671e-39
0.6376161 0.32675582 1.3175229 6.7328327e-39
0.60815203 0.32403052 1.2971445 8.5774698e-39
0.59482938 0.44979173 1.2540429 9.0409647e-39
0.696886 0.2166214 1.4190001 5.6261251e-39
0.69937515 0.17743394 1.4300748 5.6261251e-39
0.70224148 0.13813166 1.4489176 5.3498941e-39
0.66713446 0.27485564 1.3743359 6.179659e-39
0.68881613 0.22348794 1.4107953 5.4428114e-39
0.66548675 0.23175311 1.3867651 5.9037895e-39
0.64631349 0.28188333 1.3510834 6.5488058e-39
0.64375156 0.22727935 1.3573335 6.2718504e-39
0.62092042 0.27523607 1.3220705 7.3785665e-39
0.60491312 0.28167185 1.3048553 9.0384494e-39
0.61284995 0.22992215 1.3268843 7.9317389e-39
0.67984468 0.17443697 1.4180645 5.2584229e-39
0.65586942 0.18298586 1.3914316 5.9034294e-39
0.67292231 0.12673937 1.4264182 5.0740331e-39
0.64739054 0.12847152 1.3968183 5.810875e-39
0.63559592 0.17232981 1.3647749 6.1796604e-39
0.61634403 0.12563317 1.3678012 7.1938151e-39
0.61162007 0.18065901 1.3431988 7.8395446e-39
0.60610259 0.13972843 1.3531157 8.3923625e-39
0.58011925 0.47840279 1.268496 9.0398913e-39
0.58420879 0.42998239 1.2785859 9.2246399e-39
0.58537078 0.37852573 1.2985989 9.5005065e-39
0.58166236 0.32285398 1.3148143 9.3164782e-39
0.58628744 0.33415022 1.3057764 9.4090283e-39
0.58867902 0.47655138 1.2492491 8.8565776e-39
0.58537352 0.28114578 1.3216536 9.4083109e-39
0.58703327 0.29829082 1.307 9.684532e-39
0.58898377 0.22630054 1.336485 9.4987086e-39
0.58762658 0.16134252 1.3579338 8.9462565e-39
0.58994848 0.1364181 1.365 8.8533392e-39
0.58802956 0.18105897 1.3475001 9.1306422e-39
0.71437854 0.078767762 1.4725941 3.0442957e-39
0.71695644 0.020766353 1.4633645 3.967331e-39
0.71469474 -0.024618099 1.4748344 3.6907441e-39
0.70704275 -0.049308997 1.4766668 3.5070745e-39
0.69149536 0.074560501 1.4580001 4.4279336e-39
0.68638265 -0.05240538 1.4580001 3.5992673e-39
0.70212799 0.065412201 1.450985 2.2148825e-39
0.70078444 0.034365688 1.4453969 3.9673282e-39
0.69508952 -0.010275303 1.4555378 3.9673296e-39
0.66850799 0.0790556 1.437264 4.5201418e-39
0.67092305 0.032290034 1.4235065 3.597824e-39
0.64859039 0.026724365 1.4006417 5.2573383e-39
0.61746109 0.076809816 1.3813111 6.8250326e-39
0.63906372 0.053152304 1.4100002 4.8917956e-39
0.61834139 0.026296021 1.3839201 5.6261265e-39
0.6654439 -0.020572562 1.4324615 4.151718e-39
0.66095704 -0.05567741 1.4371438 3.8751354e-39
0.63839275 -0.033452127 1.4127084 4.4275861e-39
0.61416578 -0.020971542 1.392777 5.718685e-39
0.62381226 -0.065016873 1.4144636 4.5201404e-39
0.60597754 -0.065268055 1.399232 5.7186878e-39
0.5875749 0.024027253 1.3866366 7.5615214e-39
0.59048402 -0.01747309 1.3964001 6.8246752e-39
0.18064167 -0.17926347 1.0605876 1.051174e-38
0.16736439 -0.078036718 1.0273774 1.1986147e-38
0.14801939 -0.083328821 1.0046918 1.2354565e-38
0.11714937 -0.08867041 0.98358142 1.0233707e-38
0.087560095 -0.090485059 0.96866673 3.410867e-39
0.078964256 -0.094447441 0.95100009 7.0061336e-39
0.16553394 -0.12119018 1.0310291 1.272407e-38
0.14284424 -0.10493105 1.0058001 1.3831498e-38
0.16016927 -0.16994292 1.041368 1.1156389e-38
0.1382246 -0.13059208 1.0107059 1.327688e-38
0.11668135 -0.12168632 0.98882604 1.4198477e-38
0.12973094 -0.17439495 1.0169091 1.1709924e-38
0.10626266 -0.16889073 0.9943487 1.2447486e-38
0.12581453 -0.19786191 1.0190001 1.0788681e-38
0.10348387 -0.20042889 0.99840605 1.1157105e-38
0.08667136 -0.12667161 0.96259022 1.4475782e-38
0.076969303 -0.17371427 0.96906358 1.3092491e-38
0.062243637 -0.120312 0.9412939 1.3644938e-38
0.053571373 -0.16943491 0.94718325 1.3830056e-38
0.029530242 -0.12412368 0.9153139 1.2723337e-38
0.0043105311 -0.12653552 0.89523089 1.2631143e-38
0.023105241 -0.17248543 0.92244667 1.4383227e-38
0.00010525329 -0.16532478 0.90088522 1.493676e-38
0.069619618 -0.20651676 0.97208935 1.170992e-38
0.04780633 -0.20858964 0.95375234 1.2079062e-38
0.015208457 -0.21299772 0.92730474 1.2540038e-38
-0.00639578 -0.2047455 0.90721756 1.3369798e-38
-0.025756737 -0.13174161 0.87100583 1.2262363e-38
-0.028567249 -0.17281039 0.87819463 1.5028597e-38
-0.058349039 -0.19447975 0.8575384 1.4475074e-38
-0.0099711334 -0.22704345 0.90975004 1.217162e-38
-0.036092218 -0.2195953 0.88521934 1.2908463e-38
-0.056317065 -0.24918373 0.88000005 1.1893587e-38
-0.065621704 -0.22710891 0.86214828 1.2724795e-38
-0.066740535 -0.24938196 0.86555558 1.1433329e-38
-0.051198024 -0.13443527 0.84944016 1.0325894e-38
-0.052433528 -0.16074833 0.85286421 1.5765803e-38
-0.080517732 -0.14002186 0.82946372 9.0351535e-39
-0.082695507 -0.17161907 0.82981342 1.5489939e-38
-0.10528661 -0.15541114 0.80479854 1.4475424e-38
-0.087889276 -0.2185019 0.84005147 1.3277967e-38
-0.092467427 -0.25240535 0.8455503 1.1250023e-38
-0.11031592 -0.18578053 0.80975008 1.5398105e-38
-0.1344198 -0.16965355 0.78589451 1.3922975e-38
-0.1654671 -0.17466988 0.76356411 1.1894674e-38
-0.18599221 -0.17732273 0.745839 1.3185413e-38
-0.11711778 -0.22509305 0.81664866 1.3001742e-38
-0.14168762 -0.21858457 0.79304445 1.3463083e-38
-0.12326104 -0.2569412 0.82120013 1.1065635e-38
-0.14998224 -0.25987241 0.79776067 1.0697214e-38
-0.17160715 -0.22210902 0.76856804 1.3094305e-38
-0.18133929 -0.26542774 0.77444232 9.9600147e-39
-0.19685341 -0.21767521 0.74716544 1.3094669e-38
-0.20482758 -0.26223326 0.75497288 9.868182e-39
-0.22152761 -0.18175453 0.7203263 9.9589301e-39
-0.24733639 -0.18807624 0.7009021 1.0328071e-38
-0.27704942 -0.19037041 0.68142611 4.2438814e-39
-0.22784875 -0.22342166 0.72413808 1.1896487e-38
-0.25016871 -0.21473406 0.70299679 1.1804655e-38
-0.23234999 -0.27083027 0.73485976 8.6703591e-39
-0.2571103 -0.25379238 0.70735157 9.039143e-39
-0.28269249 -0.22086737 0.67810255 9.6848725e-39
-0.26174712 -0.27201712 0.70992815 8.3008605e-39
-0.28460675 -0.26035339 0.68659484 8.0257099e-39
-0.30969769 -0.24147257 0.65969574 7.8423949e-39
-0.31148067 -0.25706661 0.66010725 7.4725362e-39
-0.30589685 -0.2148765 0.65551364 7.7491203e-39
-0.33014077 -0.22037618 0.63663352 6.3661886e-39
-0.32642609 -0.25076112 0.64376855 7.196308e-39
0.18329412 -0.17498741 1.0606002 1.087945e-38
0.16852689 -0.068492211 1.028 1.134006e-38
0.14963824 -0.07349097 1.01 8.8536713e-39
0.11060202 -0.088310137 0.97800004 1.2259851e-38
0.095970891 -0.087573178 0.97121435 3.6874651e-39
0.045749482 -0.10508645 0.92421609 8.3897785e-39
0.038590431 -0.10607973 0.92090005 7.0979537e-39
-0.074751243 -0.13593572 0.83510524 6.084892e-39
-0.083991908 -0.13861173 0.82512504 6.6366266e-39
-0.20431936 -0.16853972 0.73305267 2.7655046e-39
-0.20794985 -0.17605536 0.72762501 1.2354207e-38
-0.28526768 -0.1948296 0.67474997 6.3640208e-39
-0.29895347 -0.19822973 0.65814292 7.2859771e-39
-0.34675762 -0.21760531 0.61900002 7.5654563e-39
-0.34675762 -0.22086126 0.61900002 7.3817867e-39
-0.33470243 -0.25111079 0.63705266 7.1955877e-39
-0.32076415 -0.25687855 0.65066671 7.0133517e-39
-0.23061155 -0.29167491 0.74100006 7.8395152e-39
-0.22223499 -0.29192999 0.75000006 8.1153818e-39
-0.17937827 -0.27691096 0.77800006 9.130617e-39
-0.15790519 -0.27356383 0.79000002 9.2195686e-39
-0.14841238 -0.27080089 0.80233335 1.0144026e-38
-0.11284325 -0.2622954 0.83376932 1.0880519e-38
0.18226579 -0.1822658 1.06075 1.0880878e-38
0.5842185 0.49378705 1.2544708 8.9487691e-39
0.5842185 0.49378705 1.2544708 8.9487691e-39
0.58629465 0.434645 1.2750833 9.2246371e-39
0.65814608 0.37675625 1.3430001 6.7335502e-39
0.66812962 0.32269663 1.3650001 6.3640544e-39
0.68214047 0.29182479 1.3870001 6.0863899e-39
0.73230511 0.069183901 1.4890001 1.2010837e-39
0.73230511 -0.018274993 1.4890001 3.5992645e-39
0.72787881 -0.045902267 1.4960001 3.6900308e-39
0.69976407 -0.0502593 1.47 3.3241196e-39
0.59767801 -0.065185674 1.3954288 6.2715001e-39
0.59635431 -0.05442347 1.3933334 6.547008e-39
0.59737235 -0.022407973 1.3870002 6.8250382e-39
0.59872365 -0.0056293691 1.3760002 7.1016223e-39
0.59939277 0.16656315 1.3380001 8.8555056e-39
0.59753251 0.19704311 1.3280001 9.2232036e-39
0.59716427 0.36491552 1.2860558 9.683467e-39
0.59669441 0.40481207 1.277 9.4083137e-39
0.58470863 0.44464529 1.2679999 9.1324485e-39
0.58845514 0.46487316 1.2542 9.1328044e-39
