# .PCD v0.7 - Point Cloud Data file format
VERSION 0.7
FIELDS x y z rgb
SIZE 4 4 4 4
TYPE F F F F
COUNT 1 1 1 1
WIDTH 1002
HEIGHT 1
VIEWPOINT 0 0 0 1 0 0 0
POINTS 1002
DATA ascii
0.031839177 -0.36849114 1.0901154 1.1338988e-38
0.026413413 -0.29923198 1.1028376 1.2352419e-38
0.051935654 -0.33146852 1.1578844 1.18918e-38
0.06687142 -0.31381255 1.2043917 1.2259862e-38
-0.086207643 -0.24094601 0.8270731 1.1983637e-38
-0.05840959 -0.22783409 0.90590191 1.1707411e-38
-0.088823259 -0.18221472 0.84312505 1.3365848e-38
-0.090173006 -0.1235299 0.86251473 1.3180367e-38
-0.063337952 -0.15030713 0.92317861 1.2443528e-38
-0.086707868 -0.062339824 0.89565015 1.3826099e-38
-0.033738524 -0.23484382 0.96856552 1.2075835e-38
-0.0049930681 -0.24698064 1.0400243 1.2352422e-38
-0.02797059 -0.17432539 1.0075431 1.2443529e-38
0.003876355 -0.19489902 1.0839221 1.2628279e-38
-0.058312178 -0.075733043 0.96568966 1.3550597e-38
-0.028651286 -0.12061318 1.0267602 1.3273653e-38
-0.035126336 -0.052616332 1.0362065 1.4011216e-38
-0.0035539414 -0.11957976 1.0937017 1.3919025e-38
-0.0080828005 -0.06632483 1.1025379 1.4379639e-38
0.034509555 -0.24169004 1.1468225 1.2352412e-38
0.028071156 -0.17834263 1.1545463 1.3273291e-38
0.020121437 -0.11515418 1.158201 1.4288167e-38
-0.089851066 -0.0041370997 0.91009635 1.4379271e-38
-0.063174851 -0.0027675075 0.98135531 1.3918296e-38
-0.084416844 0.060028899 0.94961655 1.3733538e-38
-0.055234261 0.061914008 1.0277222 1.3641343e-38
-0.023939265 0.0021979434 1.0873184 1.4102319e-38
0.001246701 -0.012162472 1.14847 1.4379266e-38
-0.033263363 0.067963205 1.0883381 1.3825375e-38
-0.0059728725 0.059453264 1.1573589 1.41956e-38
-0.084880583 0.12447753 0.97361124 1.3456954e-38
-0.089405209 0.18758738 0.98631561 1.2627554e-38
-0.064375803 0.16089648 1.0422263 1.2903418e-38
-0.02548188 0.12672195 1.131965 1.3456954e-38
-0.052730709 0.19315314 1.0857241 1.262647e-38
-0.028241191 0.18724667 1.1483378 1.2903417e-38
0.064009227 -0.23992166 1.2257229 1.2719393e-38
0.053206004 -0.18356963 1.219137 1.3365848e-38
0.067886993 -0.15317544 1.2699544 1.4379281e-38
0.039439283 -0.1194938 1.2077173 1.4288167e-38
0.032644305 -0.060926136 1.212625 1.4563666e-38
0.062580012 -0.070471928 1.2882533 1.4471464e-38
0.0047825784 0.11250492 1.2066368 1.3919377e-38
-0.0033929318 0.19134626 1.2158192 1.2904502e-38
0.023647942 0.011288166 1.2170374 1.4564384e-38
0.048082508 0.00080276839 1.2777137 1.4564745e-38
0.036039602 0.062287807 1.2698501 1.4657309e-38
0.067567468 0.0062409895 1.3314999 1.4933527e-38
0.063439235 0.064813375 1.3434794 1.4472909e-38
0.029802248 0.12317296 1.2771432 1.410341e-38
0.021980554 0.1938872 1.2840829 1.3365845e-38
0.05917732 0.12416404 1.355409 1.4011574e-38
0.040162388 0.19401853 1.3323371 1.3458764e-38
0.060220804 0.19018579 1.3840151 1.3551324e-38
0.072728172 0.18706284 1.4159517 1.3735002e-38
-0.090913743 0.24459811 1.0046294 1.1982547e-38
-0.089538299 0.30632594 1.0324348 1.1061312e-38
-0.064062782 0.2479037 1.0771093 1.2073656e-38
-0.061773479 0.30881476 1.1070179 1.1520844e-38
-0.033765621 0.24882418 1.1577921 1.2258045e-38
-0.08724881 0.36276826 1.0605952 1.0599972e-38
-0.05972996 0.37019572 1.1364589 1.0784359e-38
-0.080642574 0.42090663 1.1008636 9.8634905e-39
-0.062294077 0.42970821 1.1529531 1.0047519e-38
-0.0068798992 0.24416617 1.2272472 1.2443878e-38
-0.027760299 0.31191081 1.1984041 1.1705597e-38
0.0031890897 0.29126856 1.2723768 1.2259855e-38
-0.030499317 0.36736783 1.2128474 1.1060588e-38
-0.0019154344 0.36691245 1.2884495 1.1429732e-38
-0.039886415 0.43493554 1.2144053 1.0323383e-38
-0.016205918 0.42895022 1.2748435 1.0692162e-38
0.0069102808 0.42115217 1.3330762 1.0969114e-38
0.033067062 0.24903397 1.3350582 1.327438e-38
0.057507694 0.25195795 1.4009988 1.3182902e-38
0.027347554 0.31874475 1.3471785 1.2260581e-38
0.050983008 0.30474085 1.4043589 1.2445335e-38
0.036083691 0.37111434 1.3908358 1.1707765e-38
0.030793546 0.43132365 1.4003754 1.1246426e-38
0.077388488 0.24911898 1.4525946 1.3366575e-38
0.066551976 0.32970789 1.4554063 1.2444979e-38
0.059384782 0.40683904 1.4665928 1.1523383e-38
0.072734222 0.44007069 1.5149904 1.1615939e-38
-0.029031403 0.4857789 1.2630829 9.8627646e-39
-0.0016873321 0.48741448 1.3362163 1.0139713e-38
0.021725636 0.49473697 1.4011539 1.0416667e-38
0.044409253 0.49110878 1.4598716 1.0601783e-38
0.031913903 0.54912537 1.4494511 9.6798223e-39
0.064436078 0.53944719 1.5318847 1.0048616e-38
0.069933049 0.61872065 1.5774844 9.4039613e-39
-0.093139343 -0.29682776 0.78682506 2.3509528e-38
-0.094233677 -0.27119428 0.79395616 2.3509528e-38
-0.094375424 -0.25238162 0.80094332 2.3509528e-38
-0.094979018 -0.22596627 0.80968159 2.3509528e-38
-0.095578738 -0.21334401 0.81303173 2.3509528e-38
-0.094157852 -0.17897584 0.83024991 2.3509528e-38
-0.093900844 -0.16619019 0.83593524 2.3509528e-38
-0.094637185 -0.1479371 0.84112698 2.3509528e-38
-0.094934754 -0.12726238 0.8484298 2.3509528e-38
-0.094998315 -0.097089343 0.86007041 2.3509528e-38
-0.094084479 -0.072251402 0.8722142 2.3509528e-38
-0.093260907 -0.045359895 0.88492244 2.3509528e-38
-0.094675153 -0.026570516 0.88852686 2.3509528e-38
-0.093413644 0.014092083 0.90778595 2.3509528e-38
-0.094172642 0.043051839 0.917108 2.3509528e-38
-0.0945227 0.06370151 0.92426181 2.3509528e-38
-0.093750454 0.093659468 0.93803406 2.3509528e-38
-0.093980551 0.12298434 0.9489013 2.3509528e-38
-0.09299814 0.16433679 0.96769035 2.3509528e-38
-0.093066201 0.18425752 0.97530657 2.3509528e-38
-0.093504086 0.21353976 0.98560613 2.3509528e-38
-0.091636121 0.23417172 0.99863338 2.3509528e-38
-0.094437987 0.27373344 1.0066888 2.3509528e-38
-0.093629286 0.32355586 1.0283325 2.3509528e-38
-0.092074007 0.36449787 1.0484797 2.3509528e-38
-0.090475522 0.39456847 1.0644866 2.3509528e-38
-0.090575837 0.41797712 1.0733824 2.3509528e-38
-0.086275354 0.42958668 1.0893273 2.3509528e-38
-0.07631404 0.43986076 1.1197574 2.3509528e-38
-0.06883011 0.45097163 1.1439471 2.3509528e-38
-0.06049465 0.46106863 1.1699976 2.3509528e-38
-0.053406119 0.46987787 1.1922381 2.3509528e-38
-0.048441641 0.47391716 1.2069807 2.3509528e-38
-0.039398465 0.49031517 1.2373735 2.3509528e-38
-0.032539673 0.49480206 1.2573133 2.3509528e-38
-0.025749173 0.50172889 1.2780269 2.3509528e-38
-0.017776798 0.51400959 1.3039694 2.3509528e-38
0.0006819386 0.50793034 1.3505272 2.3509528e-38
0.011557115 0.52451831 1.3858513 2.3509528e-38
0.014668774 0.53304148 1.3974365 2.3509528e-38
0.018769844 0.54490662 1.412953 2.3509528e-38
0.026076177 0.56419092 1.4398706 2.3509528e-38
0.032318179 0.57426584 1.4603624 2.3509528e-38
0.044702992 0.56952471 1.4913409 2.3509528e-38
0.059241552 0.5786671 1.5334631 2.3509528e-38
0.067976303 0.62503362 1.5747675 2.3509528e-38
0.071964666 0.62763178 1.586358 2.3509528e-38
0.073867857 0.60561532 1.5827868 2.3509528e-38
0.07935521 0.55477589 1.5774372 2.3509528e-38
0.080373369 0.53508073 1.572428 2.3509528e-38
0.078228079 0.48370379 1.5466326 2.3509528e-38
0.080009736 0.43678856 1.5329943 2.3509528e-38
0.078738831 0.39568472 1.5135376 2.3509528e-38
0.076400287 0.36260223 1.4943901 2.3509528e-38
0.078932174 0.34553939 1.4944245 2.3509528e-38
0.075952366 0.31663939 1.4752136 2.3509528e-38
0.07574787 0.2844018 1.4620543 2.3509528e-38
0.078124933 0.25040027 1.4550486 2.3509528e-38
0.079785526 0.21948819 1.4473528 2.3509528e-38
0.077869445 0.19514364 1.4327449 2.3509528e-38
0.074388094 0.16437058 1.4114712 2.3509528e-38
0.072977506 0.13649988 1.3968235 2.3509528e-38
0.075965233 0.11574425 1.3966211 2.3509528e-38
0.074217379 0.095926762 1.3842312 2.3509528e-38
0.076387241 0.021903681 1.3610125 2.3509528e-38
0.075813226 1.6715494e-05 1.3509245 2.3509528e-38
0.074646309 -0.034866571 1.3341782 2.3509528e-38
0.074131392 -0.064318471 1.3212862 2.3509528e-38
0.076559253 -0.103565 1.3123626 2.3509528e-38
0.077539459 -0.13569114 1.3023876 2.3509528e-38
0.073859498 -0.15667836 1.2844175 2.3509528e-38
0.073928043 -0.19410597 1.2699506 2.3509528e-38
0.076777518 -0.23353077 1.2620751 2.3509528e-38
0.073740974 -0.27601537 1.237397 2.3509528e-38
0.073434398 -0.31405082 1.2216979 2.3509528e-38
0.07771983 -0.343283 1.2216183 2.3509528e-38
0.070672259 -0.34344238 1.2028717 2.3509528e-38
0.06593354 -0.3552852 1.1856736 2.3509528e-38
0.058019824 -0.35606098 1.1643894 2.3509528e-38
0.049796466 -0.36183691 1.1403275 2.3509528e-38
0.041669894 -0.39020082 1.1076815 2.3509528e-38
0.020509131 -0.39289179 1.0505277 2.3509528e-38
0.012460383 -0.40348133 1.0250446 2.3509528e-38
0.0078010703 -0.40081277 1.0137364 2.3509528e-38
-0.00078297989 -0.39201126 0.99442351 2.3509528e-38
-0.009759143 -0.3829453 0.97417456 2.3509528e-38
-0.018341381 -0.37417653 0.95485353 2.3509528e-38
-0.028046712 -0.3647247 0.93282241 2.3509528e-38
-0.035319734 -0.36097124 0.9150095 2.3509528e-38
-0.04388538 -0.35252962 0.89560455 2.3509528e-38
-0.056292713 -0.3417457 0.86693138 2.3509528e-38
-0.068446226 -0.33127263 0.83880937 2.3509528e-38
-0.078210361 -0.32201713 0.81654549 2.3509528e-38
-0.086356536 -0.3135657 0.7982564 2.3509528e-38
-0.092779554 -0.30511487 0.78453547 2.3509528e-38
-0.49863252 -0.39305866 1.0325248 3.5959673e-39
-0.51100934 -0.35061738 1.05397 5.8093883e-39
-0.46346727 -0.398794 1.0161948 7.1868857e-39
-0.46826112 -0.36061868 1.0329425 5.9879852e-39
-0.48027986 -0.31672254 1.054809 6.1716561e-39
-0.52529526 -0.3113457 1.07495 7.3774426e-39
-0.51505673 -0.27646923 1.0843878 6.3614746e-39
-0.50749826 -0.24117953 1.0950609 6.1741869e-39
-0.52228898 -0.21177816 1.1124102 6.6362595e-39
-0.46265972 -0.25422063 1.0720145 8.9342684e-39
-0.46748003 -0.20606115 1.0926497 1.0594514e-38
-0.77662015 0.2753664 1.4035841 5.346601e-39
-0.78939128 0.3266418 1.428618 7.0972264e-39
-0.51368886 -0.085445695 1.158021 5.6213929e-39
-0.51289457 -0.050650302 1.1712146 6.1734778e-39
-0.46928352 -0.062341549 1.1491847 7.2736779e-39
-0.51403832 -0.0099007711 1.187498 6.0820053e-39
-0.51697189 0.034564689 1.2059419 6.9121261e-39
-0.46759814 -0.012156352 1.1679976 7.8268475e-39
-0.46793517 0.033105977 1.1857098 8.3800128e-39
-0.48238876 0.065457553 1.2040697 6.9981714e-39
-0.48692083 0.098724797 1.2188063 7.0910859e-39
-0.71372157 0.059590138 1.2945651 7.463111e-39
-0.71744752 0.08214245 1.3048172 9.9545636e-39
-0.52098024 0.093558766 1.2304592 6.9135708e-39
-0.71683323 0.26770273 1.3766311 4.8838096e-39
-0.74346638 0.30290729 1.4009833 6.0823472e-39
-0.70053321 0.29696414 1.3814573 5.3451367e-39
-0.70705801 0.33020148 1.3969815 6.3571306e-39
-0.51355267 0.24081281 1.2846649 4.7019617e-39
-0.46884251 0.25580612 1.2725567 3.5930806e-39
-0.51230544 0.27741551 1.2983788 4.0544245e-39
-0.46716464 0.29703641 1.2878951 4.0522483e-39
-0.4795087 0.33814892 1.3088112 4.6046962e-39
-0.52273005 0.32569668 1.321309 4.0547804e-39
-0.51898384 0.37153164 1.337606 5.069647e-39
-0.42789114 -0.37621558 1.0106955 9.0282675e-39
-0.39014471 -0.36900821 0.99835652 1.0596679e-38
-0.34513354 -0.37201518 0.97913754 1.0870737e-38
-0.30927339 -0.35202479 0.9725191 1.1331345e-38
-0.42554346 -0.32675529 1.0289612 9.3956067e-39
-0.42047098 -0.27699858 1.0462495 1.4472166e-38
-0.38294235 -0.30310822 1.0210595 1.2809025e-38
-0.41519722 -0.24013861 1.0584486 1.1606856e-38
-0.35328051 -0.32873541 0.99921191 1.2347321e-38
-0.32276455 -0.28521374 1.0038749 1.2434807e-38
-0.3803148 -0.21098173 1.0557821 1.3357127e-38
-0.31921929 -0.2333454 1.0225956 1.3263111e-38
-0.27135122 -0.35684896 0.95543742 8.2017691e-39
-0.23683921 -0.35934711 0.94062656 9.6805187e-39
-0.19060238 -0.35076797 0.92541534 1.4200602e-38
-0.28084001 -0.31478268 0.97557878 1.1146957e-38
-0.23115915 -0.31763369 0.95454746 1.059995e-38
-0.24602592 -0.27538368 0.97691691 8.6649277e-39
-0.27339721 -0.24639919 0.9991498 1.0777099e-38
-0.27264309 -0.20374361 1.0154121 1.1331718e-38
-0.24031904 -0.21392292 0.99849588 6.5484191e-39
-0.18867372 -0.32512727 0.9345991 1.2169414e-38
-0.189493 -0.27991 0.95248729 1.1329186e-38
-0.19038814 -0.2428554 0.96723592 1.224934e-38
-0.18653429 -0.19997461 0.9823426 1.3908849e-38
-0.31148526 -0.18441112 1.0384969 1.6123711e-38
-0.43006721 -0.066932358 1.1316746 8.378924e-39
-0.38695017 -0.056662392 1.1183711 1.0223561e-38
-0.35479224 -0.065536194 1.1020285 1.0407225e-38
-0.30737668 -0.062111005 1.084343 1.0221382e-38
-0.42514423 -0.020100005 1.147887 9.3927018e-39
-0.42881918 0.033426128 1.1701471 1.0036988e-38
-0.38130111 0.013160972 1.1432208 9.5753036e-39
-0.43229523 0.08694952 1.1923262 1.0314295e-38
-0.38965046 0.06455034 1.1665256 1.3081984e-38
-0.39113197 0.10039747 1.1810405 1.1604317e-38
-0.34904799 -0.029862545 1.1135783 1.3268555e-38
-0.31133795 -0.026499014 1.0997612 1.1326284e-38
-0.31598973 0.025893524 1.1219728 1.17869e-38
-0.34245497 0.066245988 1.1482568 1.5019543e-38
-0.35199937 0.10270394 1.1662426 1.2618822e-38
-0.3007383 0.088175341 1.1400428 1.2801416e-38
-0.24459048 -0.047848139 1.064702 9.1154143e-39
-0.21735932 -0.16861428 1.0068831 1.7972325e-38
-0.19276477 -0.049794838 1.043162 1.095895e-38
-0.19232449 -0.011575839 1.0578271 1.2247882e-38
-0.27410775 -0.0071018618 1.0923629 1.1510315e-38
-0.23692945 -0.010567128 1.0761073 1.0772392e-38
-0.24966212 0.033829268 1.0984544 1.2248608e-38
-0.24446389 0.064440563 1.1082572 1.4096505e-38
-0.24730018 0.10925083 1.1267962 1.3819549e-38
-0.18913649 0.026833743 1.0714645 1.2708861e-38
-0.18698323 0.075066671 1.0893316 1.3540063e-38
-0.19492802 0.1135418 1.1074593 1.4462741e-38
-0.32836422 0.25890657 1.2174232 7.5567696e-39
-0.27557564 0.26145399 1.1972421 7.8326348e-39
-0.29310006 0.29437277 1.2170538 6.7219545e-39
-0.28357738 0.33648294 1.2295878 7.9208466e-39
-0.43345785 0.24549693 1.2543626 5.8972469e-39
-0.38553774 0.26564872 1.2429702 6.0798277e-39
-0.4287439 0.28873676 1.2692637 4.6965359e-39
-0.42786878 0.33224046 1.2858071 6.6308294e-39
-0.39177188 0.33000332 1.2704619 7.7379043e-39
-0.43094578 0.37084886 1.302034 8.4743777e-39
-0.34712815 0.29778725 1.2400472 5.4333793e-39
-0.33942729 0.33509776 1.251448 9.399592e-39
-0.36074623 0.37065998 1.2738079 9.7640361e-39
-0.2979838 0.37077194 1.2486811 9.4878051e-39
-0.27562067 0.37536445 1.241496 2.3509528e-38
-0.2957947 0.38681838 1.2540345 2.3509528e-38
-0.33692235 0.38617879 1.27028 2.3509528e-38
-0.3574107 0.38702041 1.2788235 2.3509528e-38
-0.38773763 0.37634557 1.2868404 2.3509528e-38
-0.41755164 0.37782708 1.2993723 2.3509528e-38
-0.43829122 0.37833789 1.3078882 2.3509528e-38
-0.47543001 0.37405604 1.3211195 2.3509528e-38
-0.50880492 0.3784658 1.3362167 2.3509528e-38
-0.52892119 0.37719381 1.3437902 2.3509528e-38
-0.53975618 0.36393932 1.3429883 2.3509528e-38
-0.53867728 0.34331408 1.334546 2.3509528e-38
-0.53501588 0.31490389 1.3220448 2.3509528e-38
-0.53800946 0.29952908 1.3172747 2.3509528e-38
-0.53433007 0.27084404 1.3046596 2.3509528e-38
-0.53231484 0.23325953 1.2892561 2.3509528e-38
-0.52558851 0.22939204 1.2850566 2.3509528e-38
-0.50487185 0.22811575 1.2762526 2.3509528e-38
-0.48872402 0.22978005 1.2704231 2.3509528e-38
-0.44435212 0.23584349 1.2549828 2.3509528e-38
-0.41725874 0.24317649 1.2469649 2.3509528e-38
-0.39311343 0.24360055 1.2374463 2.3509528e-38
-0.37466246 0.24671017 1.2312543 2.3509528e-38
-0.35423908 0.24752241 1.2233793 2.3509528e-38
-0.32538921 0.24797845 1.2119863 2.3509528e-38
-0.30567852 0.24880637 1.204403 2.3509528e-38
-0.27056447 0.2549763 1.192717 2.3509528e-38
-0.25743711 0.25849161 1.1888175 2.3509528e-38
-0.2618641 0.28272817 1.2000048 2.3509528e-38
-0.27051172 0.32180277 1.218647 2.3509528e-38
-0.2730214 0.36273441 1.2355487 2.3509528e-38
-0.21944442 0.12887384 1.1232452 2.3509528e-38
-0.25178319 0.13105603 1.1370618 2.3509528e-38
-0.26535797 0.12768604 1.1411972 2.3509528e-38
-0.29356238 0.11408398 1.1472261 2.3509528e-38
-0.31485564 0.11431142 1.155854 2.3509528e-38
-0.33449128 0.11575392 1.1642888 2.3509528e-38
-0.3566407 0.11653164 1.1734736 2.3509528e-38
-0.37630785 0.11623814 1.181247 2.3509528e-38
-0.41670191 0.10618246 1.1935416 2.3509528e-38
-0.44501388 0.10363182 1.2039053 2.3509528e-38
-0.4600136 0.099330701 1.2082505 2.3509528e-38
-0.49552193 0.1063548 1.2252185 2.3509528e-38
-0.52352792 0.10340807 1.2353058 2.3509528e-38
-0.52220047 0.07341712 1.2231269 2.3509528e-38
-0.53113544 0.052201763 1.2184713 2.3509528e-38
-0.53123564 0.039536182 1.2135931 2.3509528e-38
-0.53391361 0.0057137581 1.2015325 2.3509528e-38
-0.53105485 -0.011740518 1.1936078 2.3509528e-38
-0.53229219 -0.042641621 1.182104 2.3509528e-38
-0.52944893 -0.077180795 1.1675509 2.3509528e-38
-0.52375382 -0.095314234 1.1582249 2.3509528e-38
-0.48427269 -0.085856751 1.1460642 2.3509528e-38
-0.46470055 -0.085356735 1.138409 2.3509528e-38
-0.44112712 -0.08745198 1.1281415 2.3509528e-38
-0.42317697 -0.086171046 1.1214402 2.3509528e-38
-0.39886615 -0.080906242 1.1137352 2.3509528e-38
-0.37509274 -0.074988581 1.1064991 2.3509528e-38
-0.35354534 -0.075573519 1.0976305 2.3509528e-38
-0.32391194 -0.076303765 1.0854627 2.3509528e-38
-0.30122894 -0.068857022 1.0792578 2.3509528e-38
-0.27265391 -0.067330547 1.0683908 2.3509528e-38
-0.24438195 -0.05571242 1.0615644 2.3509528e-38
-0.2214569 -0.0593611 1.0509535 2.3509528e-38
-0.18023464 -0.064106695 1.0325788 2.3509528e-38
-0.17364654 -0.058510005 1.0321102 2.3509528e-38
-0.17554773 -0.036776628 1.0413126 2.3509528e-38
-0.17667441 -0.016659878 1.0495764 2.3509528e-38
-0.1726052 -0.0017043356 1.0537524 2.3509528e-38
-0.17020755 0.016167093 1.059731 2.3509528e-38
-0.17605989 0.039543793 1.071156 2.3509528e-38
-0.17666446 0.05415481 1.0770725 2.3509528e-38
-0.17038804 0.080135413 1.0846447 2.3509528e-38
-0.16792329 0.10723296 1.0941792 2.3509528e-38
-0.17634636 0.12620528 1.1049249 2.3509528e-38
-0.19454324 -0.16187622 1.0003496 2.3509528e-38
-0.21153326 -0.1601162 1.0078467 2.3509528e-38
-0.2636525 -0.16960557 1.0250636 2.3509528e-38
-0.28161323 -0.17101844 1.031718 2.3509528e-38
-0.29798552 -0.17232364 1.0377771 2.3509528e-38
-0.33838806 -0.17558897 1.052712 2.3509528e-38
-0.35620013 -0.17937829 1.0583839 2.3509528e-38
-0.37226856 -0.17589101 1.0661821 2.3509528e-38
-0.39743888 -0.18574817 1.0724485 2.3509528e-38
-0.42588013 -0.17842883 1.0866971 2.3509528e-38
-0.45532748 -0.19487512 1.0921199 2.3509528e-38
-0.4818826 -0.19184333 1.103947 2.3509528e-38
-0.51431775 -0.19866394 1.1143061 2.3509528e-38
-0.53293985 -0.20581107 1.1189988 2.3509528e-38
-0.53344071 -0.22119901 1.1132239 2.3509528e-38
-0.5322113 -0.24215002 1.1045948 2.3509528e-38
-0.53438205 -0.2920047 1.086105 2.3509528e-38
-0.53289008 -0.32121748 1.0741621 2.3509528e-38
-0.52789015 -0.35811019 1.0578302 2.3509528e-38
-0.51394796 -0.38166636 1.0430911 2.3509528e-38
-0.51748443 -0.40077567 1.0370884 2.3509528e-38
-0.51427299 -0.40752095 1.033181 2.3509528e-38
-0.50096357 -0.40644336 1.0282619 2.3509528e-38
-0.48733911 -0.40332577 1.0240086 2.3509528e-38
-0.47456113 -0.40289593 1.019051 2.3509528e-38
-0.45343423 -0.40001115 1.0116985 2.3509528e-38
-0.43268964 -0.3949829 1.0053318 2.3509528e-38
-0.41515189 -0.39364496 0.99881798 2.3509528e-38
-0.39467573 -0.39190763 0.99128085 2.3509528e-38
-0.36293912 -0.38551298 0.98103648 2.3509528e-38
-0.34285843 -0.38330591 0.97384042 2.3509528e-38
-0.32514286 -0.38210821 0.96720093 2.3509528e-38
-0.30957475 -0.37833369 0.96242321 2.3509528e-38
-0.29383877 -0.37508503 0.95737404 2.3509528e-38
-0.28012484 -0.37471515 0.95201778 2.3509528e-38
-0.2645418 -0.37119573 0.94713515 2.3509528e-38
-0.21799845 -0.36533925 0.93074358 2.3509528e-38
-0.20354567 -0.36394572 0.92548871 2.3509528e-38
-0.18651955 -0.36327776 0.9189198 2.3509528e-38
-0.17396648 -0.35992754 0.91518664 2.3509528e-38
-0.17586671 -0.33827838 0.9243558 2.3509528e-38
-0.17243092 -0.32151183 0.92948908 2.3509528e-38
-0.17401981 -0.28822637 0.94305229 2.3509528e-38
-0.17261687 -0.27294454 0.9484241 2.3509528e-38
-0.17031761 -0.24183536 0.95958298 2.3509528e-38
-0.16303606 -0.2032003 0.97166628 2.3509528e-38
-0.1738719 -0.17844538 0.98562515 2.3509528e-38
-0.17612828 -0.16948126 0.9900111 2.3509528e-38
-0.79844385 0.27557689 1.412418 2.3509528e-38
-0.77988064 0.26096851 1.3993003 2.3509528e-38
-0.75942785 0.25994816 1.3907017 2.3509528e-38
-0.72983253 0.25993404 1.3788273 2.3509528e-38
-0.70242226 0.2571322 1.3667467 2.3509528e-38
-0.67583007 0.26650876 1.3597234 2.3509528e-38
-0.68650502 0.28111014 1.3696747 2.3509528e-38
-0.69118881 0.32585073 1.3889276 2.3509528e-38
-0.69999886 0.33956176 1.3977853 2.3509528e-38
-0.71790498 0.33568949 1.4034626 2.3509528e-38
-0.74007982 0.32925832 1.4098582 2.3509528e-38
-0.76158422 0.33050758 1.4189674 2.3509528e-38
-0.79227513 0.34784836 1.43801 2.3509528e-38
-0.80824393 0.34045687 1.4415436 2.3509528e-38
-0.8072809 0.32590765 1.4355073 2.3509528e-38
-0.72684115 0.061889954 1.3007196 2.3509528e-38
-0.72560209 0.095018305 1.3130877 2.3509528e-38
-0.70618093 0.089690842 1.3032302 2.3509528e-38
-0.70425445 0.059207566 1.2906197 2.3509528e-38
-0.71511722 0.043022972 1.288691 2.3509528e-38
-0.72307628 0.057207055 1.2973912 2.3509528e-38
-0.14463742 -0.30337539 0.7933839 1.3086319e-38
-0.11842918 -0.30394417 0.78248751 1.9451818e-38
-0.14376612 -0.28363711 0.80080765 1.5208268e-38
-0.11736692 -0.2835559 0.79008961 1.9635847e-38
-0.12617332 -0.26027742 0.80284941 1.9357817e-38
-0.1150267 -0.24150869 0.80570674 1.9910991e-38
-0.50914133 -0.35102621 0.92303431 1.171172e-38
-0.50985491 -0.32629329 0.93307173 1.1804275e-38
-0.52218747 -0.30853486 0.94509196 1.1988666e-38
-0.52515566 -0.28556281 0.95535344 1.1988669e-38
-0.52868664 -0.25979277 0.96694678 1.1896113e-38
-0.49999419 -0.29133916 0.94283122 1.2264887e-38
-0.49933183 -0.26574105 0.95264918 1.235744e-38
-0.53045481 -0.2417158 0.97479057 1.1988305e-38
-0.49917668 -0.23553306 0.96449047 1.2540394e-38
-0.4775857 -0.35113117 0.91014332 1.1712799e-38
-0.48035085 -0.32655826 0.92095304 1.15284e-38
-0.47961232 -0.30370861 0.92965692 1.254184e-38
-0.4792535 -0.26930109 0.94307023 1.235673e-38
-0.47897974 -0.24165173 0.95385486 1.3094655e-38
-0.48183542 -0.2190588 0.96392119 1.32776e-38
-0.54715198 -0.22102106 0.98974532 1.1434416e-38
-0.52239764 -0.2192447 0.98036522 1.2357084e-38
-0.58165532 -0.089157201 1.0557605 4.9760151e-39
-0.58482695 -0.060993083 1.068151 6.0819969e-39
-0.58284736 -0.0062159202 1.0889316 7.2794442e-39
-0.58621693 0.032091554 1.1054001 7.2801589e-39
-0.60784084 0.077045716 1.1319211 9.6772523e-39
-0.5816927 0.057489656 1.1135666 8.8456881e-39
-0.58535194 0.091007158 1.1282654 1.1984312e-38
-0.48840487 -0.19851415 0.97469258 1.2632232e-38
-0.41905791 -0.14646971 0.96696389 1.4563996e-38
-0.54976708 -0.19307327 1.001824 1.1618805e-38
-0.56547177 -0.16272752 1.0201777 1.1433329e-38
-0.54932892 -0.163156 1.0134354 1.1803187e-38
-0.57113767 -0.13249163 1.0344003 6.9153799e-39
-0.52709079 -0.19882458 0.99032342 1.2448923e-38
-0.52741939 -0.17769919 0.99878234 1.2540397e-38
-0.49983335 -0.17816328 0.98736632 1.2815899e-38
-0.52317148 -0.15848002 1.0046266 1.2724066e-38
-0.53158909 -0.13486323 1.0173613 1.2447479e-38
-0.56660432 -0.10364982 1.0439204 1.0141865e-38
-0.54443055 -0.11344789 1.0310297 1.1894303e-38
-0.5452556 -0.090430751 1.0404364 1.1802103e-38
-0.55360633 -0.071607679 1.0512547 1.1709553e-38
-0.55770117 -0.048972491 1.0618423 1.1340403e-38
-0.50571853 -0.11502745 1.0146435 1.2723343e-38
-0.52506435 -0.08819107 1.033097 1.2447119e-38
-0.52616018 -0.05555186 1.0464058 1.2354922e-38
-0.50082469 -0.081821881 1.0257365 1.2538589e-38
-0.50009131 -0.044042274 1.040326 1.2446036e-38
-0.49407515 -0.15429953 0.99442577 1.2907376e-38
-0.47682488 -0.1240651 0.99931622 1.0972349e-38
-0.44765252 -0.14339601 0.97981906 8.2972339e-39
-0.4703747 -0.098735787 1.0066715 1.0788685e-38
-0.47761306 -0.070869617 1.0206006 1.1985784e-38
-0.47713616 -0.047914393 1.0294527 1.2170176e-38
-0.53088349 -0.027181434 1.0595094 1.2077253e-38
-0.50711691 -0.011475529 1.0560209 1.226128e-38
-0.57281876 -0.033186696 1.0742191 7.6489568e-39
-0.55518794 -0.0090139406 1.0765659 1.1339679e-38
-0.56761062 0.010088265 1.0891523 1.0509188e-38
-0.56822848 0.033274449 1.0985413 1.0139688e-38
-0.54786009 0.017905971 1.0841906 1.1432243e-38
-0.52361906 0.015992464 1.0735654 1.2077251e-38
-0.52622032 0.034753457 1.0820179 1.1800304e-38
-0.50337058 0.015824057 1.0652536 1.2077249e-38
-0.55140692 0.05363141 1.0997136 1.1247488e-38
-0.56703466 0.074593425 1.114338 1.0509552e-38
-0.54348028 0.077730477 1.1059828 1.1247846e-38
-0.57184041 0.11419231 1.1319001 1.078687e-38
-0.54817325 0.098060571 1.1159054 1.0510647e-38
-0.5476405 0.1184386 1.1237192 7.6522289e-39
-0.52206796 0.060537454 1.0904881 1.1800305e-38
-0.50087464 0.045937225 1.0761043 1.1892858e-38
-0.50158113 0.079478011 1.0896099 1.1800299e-38
-0.52319628 0.098057397 1.1057335 1.1708467e-38
-0.52373868 0.1235315 1.1159933 1.1154938e-38
-0.50008267 0.099495053 1.0968881 1.1615905e-38
-0.50196552 0.12343108 1.1070875 7.7454923e-39
-0.48113453 -0.014749347 1.0441506 1.2445676e-38
-0.4809047 0.012244968 1.0546949 1.2537511e-38
-0.47783786 0.034990329 1.0624096 1.1892498e-38
-0.48267919 0.054665394 1.0721346 1.244531e-38
-0.47893393 0.083372891 1.0819225 1.1892498e-38
-0.47889113 0.11518925 1.0944433 1.2168722e-38
-0.63520193 0.12905356 1.1635581 9.6805271e-39
-0.60802871 0.13505703 1.1548587 9.6819663e-39
-0.15127257 -0.26180232 0.81246901 1.0592346e-38
-0.14479625 -0.23596686 0.82001311 1.2897237e-38
-0.13906288 -0.21844752 0.82458252 1.7142221e-38
-0.12384927 -0.22207852 0.81695652 1.9726597e-38
-0.39760527 -0.13741364 0.96179688 1.0324449e-38
-0.24499226 -0.12268446 0.90545624 1.4102295e-38
-0.22276534 -0.1297688 0.89361352 1.5946202e-38
-0.2014043 -0.12421691 0.88710302 1.6958548e-38
-0.14474146 -0.20105034 0.83375078 1.3449329e-38
-0.14354366 -0.17464557 0.84366858 1.5755658e-38
-0.11810847 -0.19954821 0.82349753 1.981807e-38
-0.11861594 -0.1757367 0.83308792 1.9909905e-38
-0.14888667 -0.15702274 0.85278922 1.3724831e-38
-0.14026162 -0.13192874 0.85916615 1.9356354e-38
-0.12367729 -0.15421782 0.84362912 2.0001736e-38
-0.11959019 -0.13394883 0.84995246 2.0094291e-38
-0.1435533 -0.10039588 0.87293309 8.2939815e-39
-0.11782242 -0.11308201 0.85745585 2.0001736e-38
-0.14747411 -0.073955573 0.88494927 7.4620502e-39
-0.11463423 -0.079354048 0.8694492 1.9909535e-38
-0.12814382 -0.04748363 0.88750994 1.7694667e-38
-0.11303348 -0.030945562 0.88787431 1.9540387e-38
-0.14574715 -0.013823918 0.90794283 1.3263116e-38
-0.13113111 -0.0069830376 0.90468693 1.8433318e-38
-0.14475858 0.014848339 0.91883945 1.4093248e-38
-0.14585049 0.039601006 0.92903876 1.3724453e-38
-0.11653739 0.029841905 0.91325641 1.871063e-38
-0.10959417 -0.0063342028 0.89617276 1.9263803e-38
-0.13036752 0.058167391 0.93005061 1.6310643e-38
-0.14215383 0.078151114 0.9427253 1.4647856e-38
-0.14286187 0.10034472 0.9517597 1.4369811e-38
-0.14093412 0.12238286 0.95965958 1.5664537e-38
-0.11505796 0.087859631 0.93551761 1.769684e-38
-0.11537398 0.12250181 0.9492982 1.7051475e-38
-0.57196891 0.14573745 1.1443841 8.666378e-39
-0.54701316 0.13898316 1.13156 9.9563881e-39
-0.55318969 0.16738567 1.145268 9.9571098e-39
-0.52249241 0.15465133 1.1277496 8.4819867e-39
-0.53102171 0.18508579 1.1432164 8.1124811e-39
-0.50560647 0.20277856 1.1398395 8.6660095e-39
-0.46343413 0.13995266 1.097908 1.2444587e-38
-0.49594012 0.14064114 1.1114162 1.106273e-38
-0.49683475 0.16538481 1.1215314 1.0878342e-38
-0.46706501 0.16234289 1.1082102 1.1983607e-38
-0.46983898 0.18262449 1.1173323 1.1246049e-38
-0.4766258 0.20348439 1.1283166 1.0970544e-38
-0.43601203 0.14020149 1.0868396 1.5209004e-38
-0.43830967 0.16501094 1.0975522 1.2167999e-38
-0.41379935 0.15625247 1.0841198 1.3181067e-38
-0.4259859 0.18622288 1.1008933 9.677995e-39
-0.48179975 0.22781041 1.1400098 1.0601755e-38
-0.47879326 0.24693662 1.1463228 1.0232259e-38
-0.64429063 0.15081856 1.1758362 9.2199105e-39
-0.62272561 0.16729772 1.1735489 3.8711248e-39
-0.59750003 0.15999119 1.1603975 7.8369775e-39
-0.58906066 0.1807185 1.1651292 5.2536809e-39
-0.58866566 0.24502763 1.1903117 5.2511502e-39
-0.58423102 0.26800722 1.1975614 6.2652965e-39
-0.58244765 0.28661621 1.2041687 6.6333532e-39
-0.58461994 0.41260886 1.2547047 5.1636573e-39
-0.58458537 0.44529808 1.267573 6.2703524e-39
-0.56409979 0.19285531 1.1597478 7.0961572e-39
-0.5487771 0.20829913 1.1595945 8.4827014e-39
-0.56818831 0.22583717 1.1744103 6.725567e-39
-0.56735843 0.25168201 1.1842574 6.542968e-39
-0.54325753 0.241733 1.1705225 9.587963e-39
-0.5539065 0.27029604 1.186115 8.7585652e-39
-0.56782949 0.29119998 1.2000226 8.2053844e-39
-0.54972041 0.2887361 1.1916775 9.4035787e-39
-0.52070725 0.22707766 1.1555644 9.0344346e-39
-0.50912941 0.24758494 1.1589315 9.2184658e-39
-0.5225746 0.26966575 1.1731081 9.7723584e-39
-0.52533191 0.29277155 1.1833365 9.8641897e-39
-0.5012756 0.28159961 1.169138 1.0140418e-38
-0.48164162 0.26758671 1.1556206 1.032446e-38
-0.47573248 0.29377523 1.1635348 9.9563937e-39
-0.57707697 0.31002373 1.2112063 9.9560112e-39
-0.57734489 0.32985398 1.2191302 9.9567301e-39
-0.54992771 0.3106249 1.2003878 9.3117376e-39
-0.55358547 0.33073056 1.2098006 9.2188259e-39
-0.57201958 0.35369083 1.2263553 9.9570986e-39
-0.54571295 0.35151964 1.2147874 9.034799e-39
-0.55501127 0.37731522 1.2287394 8.4812609e-39
-0.50986677 0.31360862 1.1852504 9.863831e-39
-0.5217014 0.33563587 1.1987504 9.4957715e-39
-0.52298766 0.36816132 1.2120917 9.3110187e-39
-0.53340071 0.39773053 1.2279845 8.850042e-39
-0.50261635 0.38641632 1.2109903 9.2188273e-39
-0.50781137 0.42059603 1.2265754 8.7585666e-39
-0.56733811 0.39690611 1.2414794 6.7291726e-39
-0.55222535 0.41937748 1.2441809 8.2975885e-39
-0.56889147 0.43815893 1.2583688 7.3759895e-39
-0.56850612 0.4625698 1.2678318 7.1001215e-39
-0.54567623 0.44154587 1.2502502 8.3897855e-39
-0.5485177 0.45925787 1.2583873 8.205753e-39
-0.52160019 0.44106466 1.2402567 8.7582093e-39
-0.52004445 0.46060318 1.2473228 8.4819797e-39
-0.48317999 0.32545143 1.1790506 1.0048945e-38
-0.47293878 0.35569388 1.1867981 1.0601407e-38
-0.49792758 0.35332653 1.1960409 9.4950541e-39
-0.48290354 0.37536404 1.1986074 9.6794453e-39
-0.48155621 0.39548811 1.2059894 9.6794453e-39
-0.48874089 0.43964681 1.2263172 8.7585694e-39
-0.47511202 0.46327668 1.2300795 8.2983129e-39
-0.496898 0.45951834 1.23747 8.6656563e-39
-0.58517152 0.50503361 1.2913523 7.6540211e-39
-0.55412143 0.4830125 1.2700304 7.9291661e-39
-0.56786549 0.50431681 1.2840227 7.7454895e-39
-0.54995519 0.50273359 1.2761056 7.9291717e-39
-0.52431244 0.48071024 1.2569846 8.3897869e-39
-0.52516663 0.49968851 1.2648115 8.3897785e-39
-0.50138098 0.48036206 1.2475096 8.4812665e-39
-0.50383747 0.49839267 1.2556155 8.1131986e-39
-0.48340005 0.48271254 1.241114 8.4819811e-39
-0.47246861 0.49936721 1.2432258 9.0362311e-39
-0.35385495 0.1493659 1.0569962 1.5022811e-38
-0.3947131 0.14337477 1.0712729 1.4839144e-38
-0.38405007 0.16923106 1.0771203 1.2904125e-38
-0.37998286 0.19675405 1.0863105 7.6482478e-39
-0.35152632 0.17968324 1.0679954 1.2995959e-38
-0.32998297 0.19416498 1.0649297 1.188961e-38
-0.31975588 0.16473736 1.0491685 1.4654754e-38
-0.29497498 0.16349442 1.0385876 1.5207564e-38
-0.29681855 0.19996381 1.0537102 1.1613016e-38
-0.26772976 0.16012497 1.0261652 1.6497939e-38
-0.26671755 0.18753149 1.0365534 1.4101939e-38
-0.24418828 0.17562643 1.0226879 1.5207206e-38
-0.25634605 0.21077812 1.0414913 9.1233709e-39
-0.14258048 0.14434835 0.96898621 1.9539295e-38
-0.1242171 0.16080928 0.96799552 1.64983e-38
-0.12674718 0.18607736 0.97898346 1.5668547e-38
-0.10204979 0.1557236 0.95696461 1.6590497e-38
-0.21526398 0.17057072 1.0089173 1.6221354e-38
-0.23069227 0.20325664 1.0280807 1.2903037e-38
-0.1873097 0.17417441 0.99895424 1.6590136e-38
-0.1949036 0.1990708 1.0118579 1.474659e-38
-0.15992156 0.18109383 0.9905284 1.6498302e-38
-0.16101296 0.2059626 1.0007732 1.5115732e-38
-0.20411736 0.21619806 1.0223591 7.4598965e-39
-0.1706131 0.22331347 1.01152 4.6954639e-39
-0.12065307 0.20803548 0.98515511 1.5300126e-38
-0.14394991 0.22832231 1.0026366 8.0155912e-39
-0.14252836 0.25237215 1.0115354 5.6203083e-39
-0.11614799 0.22642961 0.99056953 1.5023902e-38
-0.13503121 0.27163041 1.0160717 1.0137894e-38
-0.14832774 0.29403436 1.0303153 6.0819997e-39
-0.11245307 0.24615665 0.99683887 1.465476e-38
-0.10855426 0.26766852 1.0037287 1.4194147e-38
-0.11204773 0.28812033 1.013211 1.3733525e-38
-0.14163849 0.31179374 1.0345899 8.2024992e-39
-0.14043503 0.33223921 1.0421569 1.0508476e-38
-0.1133741 0.30925462 1.0220798 1.3273269e-38
-0.11773994 0.33109611 1.032465 1.290413e-38
-0.1411688 0.35208219 1.0502756 1.2536776e-38
-0.11993809 0.35215351 1.0416584 1.2352393e-38
-0.1288452 0.37924421 1.0559614 1.2629337e-38
-0.10136506 0.33247656 1.026341 1.2995964e-38
-0.10360947 0.36334315 1.0394188 1.225984e-38
-0.11325493 0.39904433 1.0574158 1.1707388e-38
-0.1274223 0.41716319 1.0703251 1.1983976e-38
-0.51728791 -0.3620548 0.92200559 2.3509528e-38
-0.52351624 -0.35343185 0.92793989 2.3509528e-38
-0.53132278 -0.31223184 0.94735503 2.3509528e-38
-0.53175342 -0.29477191 0.95441097 2.3509528e-38
-0.53473401 -0.27482066 0.96348715 2.3509528e-38
-0.54185539 -0.24681838 0.97742218 2.3509528e-38
-0.55071557 -0.22522739 0.98953879 2.3509528e-38
-0.55361116 -0.20622188 0.99820763 2.3509528e-38
-0.57108241 -0.17306395 1.0183891 2.3509528e-38
-0.57339394 -0.14121729 1.0318805 2.3509528e-38
-0.5803386 -0.12576917 1.0407963 2.3509528e-38
-0.59067816 -0.091422707 1.0585419 2.3509528e-38
-0.59221703 -0.059328288 1.0718164 2.3509528e-38
-0.5797742 -0.038298406 1.0750371 2.3509528e-38
-0.5813176 -0.015466263 1.0846633 2.3509528e-38
-0.59900349 0.029622018 1.1096337 2.3509528e-38
-0.60174763 0.072860919 1.1277907 2.3509528e-38
-0.64342976 0.11597826 1.1617557 2.3509528e-38
-0.65149683 0.14582549 1.1768029 2.3509528e-38
-0.64424235 0.16320576 1.1806982 2.3509528e-38
-0.62389517 0.17129585 1.1756008 2.3509528e-38
-0.5899967 0.23011437 1.1849763 2.3509528e-38
-0.59804296 0.24643876 1.1946861 2.3509528e-38
-0.60296261 0.25977454 1.2019448 2.3509528e-38
-0.58239901 0.30391225 1.210965 2.3509528e-38
-0.57868415 0.32383552 1.2173038 2.3509528e-38
-0.58216435 0.34364066 1.2265258 2.3509528e-38
-0.57633227 0.388127 1.2416821 2.3509528e-38
-0.59199506 0.40652108 1.2553089 2.3509528e-38
-0.58774495 0.42851934 1.2622473 2.3509528e-38
-0.5857814 0.4585616 1.2732868 2.3509528e-38
-0.58996642 0.50120926 1.2917976 2.3509528e-38
-0.5895955 0.51648772 1.2976677 2.3509528e-38
-0.5694719 0.51506406 1.2889121 2.3509528e-38
-0.5559482 0.51207232 1.2822262 2.3509528e-38
-0.52469856 0.50400054 1.2663201 2.3509528e-38
-0.50587744 0.5025543 1.2580861 2.3509528e-38
-0.4716838 0.50455844 1.2449518 2.3509528e-38
-0.47125694 0.47620845 1.233606 2.3509528e-38
-0.46949944 0.46475551 1.2283769 2.3509528e-38
-0.47596404 0.44584581 1.2235574 2.3509528e-38
-0.4719623 0.40001115 1.2038652 2.3509528e-38
-0.46805346 0.35961363 1.1863536 2.3509528e-38
-0.47041339 0.33825094 1.178896 2.3509528e-38
-0.4722532 0.31429303 1.1702037 2.3509528e-38
-0.47252446 0.30004001 1.1646973 2.3509528e-38
-0.47091606 0.28785649 1.159241 2.3509528e-38
-0.4721697 0.27258357 1.1537328 2.3509528e-38
-0.47060442 0.24420688 1.1419126 2.3509528e-38
-0.47157732 0.22836104 1.1360642 2.3509528e-38
-0.47025478 0.21665569 1.1309128 2.3509528e-38
-0.44346982 0.19159521 1.1101298 2.3509528e-38
-0.42603099 0.19177578 1.1030997 2.3509528e-38
-0.39071336 0.19923425 1.0916574 2.3509528e-38
-0.38401851 0.19978824 1.0891495 2.3509528e-38
-0.36221507 0.20460132 1.0821677 2.3509528e-38
-0.34451941 0.20251867 1.0741413 2.3509528e-38
-0.33309045 0.20245546 1.0694623 2.3509528e-38
-0.28676814 0.21209536 1.0543984 2.3509528e-38
-0.26904532 0.20935297 1.0461009 2.3509528e-38
-0.24026319 0.21866348 1.0380497 2.3509528e-38
-0.211712 0.21836272 1.0263048 2.3509528e-38
-0.19252391 0.21786766 1.0182961 2.3509528e-38
-0.18159619 0.22115058 1.0151401 2.3509528e-38
-0.15056974 0.25275484 1.0149605 2.3509528e-38
-0.14900506 0.27020586 1.0212005 2.3509528e-38
-0.15364984 0.29504499 1.0328805 2.3509528e-38
-0.15188985 0.32994241 1.0459163 2.3509528e-38
-0.15162086 0.35444692 1.0554636 2.3509528e-38
-0.14702119 0.38685548 1.0663623 2.3509528e-38
-0.13913783 0.41109475 1.0727043 2.3509528e-38
-0.14081553 0.4210681 1.0773178 2.3509528e-38
-0.12965892 0.42032954 1.0724838 2.3509528e-38
-0.11428606 0.41943526 1.0658714 2.3509528e-38
-0.10084938 0.40151089 1.0533361 2.3509528e-38
-0.10171904 0.37227544 1.0421691 2.3509528e-38
-0.098559566 0.33718261 1.0270531 2.3509528e-38
-0.10181347 0.31246209 1.0186361 2.3509528e-38
-0.10174107 0.29131618 1.0102735 2.3509528e-38
-0.099776484 0.26041889 0.99729741 2.3509528e-38
-0.10159749 0.22230248 0.98301798 2.3509528e-38
-0.10116124 0.2010491 0.97446471 2.3509528e-38
-0.10004407 0.18027386 0.9658227 2.3509528e-38
-0.10169372 0.14241283 0.95157403 2.3509528e-38
-0.10151114 0.11179601 0.93943417 2.3509528e-38
-0.10443791 0.083749555 0.9295733 2.3509528e-38
-0.10326346 0.056303892 0.91827923 2.3509528e-38
-0.10191274 0.012964807 0.90065008 2.3509528e-38
-0.1025329 -0.015296738 0.88976532 2.3509528e-38
-0.10435156 -0.038063709 0.88153374 2.3509528e-38
-0.10386214 -0.067584231 0.86970097 2.3509528e-38
-0.10555661 -0.094266489 0.85987604 2.3509528e-38
-0.10691699 -0.12231473 0.84937668 2.3509528e-38
-0.11103775 -0.13908078 0.84444743 2.3509528e-38
-0.11094662 -0.15907106 0.83653247 2.3509528e-38
-0.10887766 -0.17343573 0.83002919 2.3509528e-38
-0.10819931 -0.19525445 0.82115459 2.3509528e-38
-0.11043741 -0.21943365 0.81253737 2.3509528e-38
-0.10990784 -0.2396618 0.80435014 2.3509528e-38
-0.11056811 -0.25952867 0.79678988 2.3509528e-38
-0.10940429 -0.28122574 0.78776556 2.3509528e-38
-0.11123164 -0.29881537 0.78157777 2.3509528e-38
-0.12109442 -0.30666059 0.78250235 2.3509528e-38
-0.1493427 -0.31294486 0.79152882 2.3509528e-38
-0.15400207 -0.2868678 0.80370265 2.3509528e-38
-0.15669021 -0.25842693 0.81600523 2.3509528e-38
-0.14740303 -0.22867052 0.82395005 2.3509528e-38
-0.14771137 -0.20882513 0.83189625 2.3509528e-38
-0.15050139 -0.18721904 0.84154689 2.3509528e-38
-0.15507978 -0.16270749 0.85307086 2.3509528e-38
-0.1917612 -0.13018489 0.88082433 2.3509528e-38
-0.22189136 -0.14272462 0.88815194 2.3509528e-38
-0.24438524 -0.1341683 0.90068346 2.3509528e-38
-0.25164288 -0.11957866 0.90938836 2.3509528e-38
-0.23328499 -0.11783805 0.9025988 2.3509528e-38
-0.20843208 -0.11047173 0.89538145 2.3509528e-38
-0.15982763 -0.079232708 0.88790011 2.3509528e-38
-0.15531234 -0.065346807 0.89153361 2.3509528e-38
-0.14940824 -0.03766486 0.90003842 2.3509528e-38
-0.15432996 -0.0089462297 0.91336006 2.3509528e-38
-0.15033509 0.025279867 0.9252212 2.3509528e-38
-0.15282701 0.043228451 0.9333092 2.3509528e-38
-0.14686912 0.073198602 0.94269377 2.3509528e-38
-0.14523926 0.092558295 0.94965935 2.3509528e-38
-0.14823225 0.11161707 0.95838892 2.3509528e-38
-0.14963588 0.13283868 0.96732348 2.3509528e-38
-0.17118542 0.16859998 0.99019152 2.3509528e-38
-0.18441439 0.16699216 0.99494487 2.3509528e-38
-0.20697354 0.16311744 1.0026041 2.3509528e-38
-0.22714327 0.16251425 1.0105797 2.3509528e-38
-0.24526753 0.15853463 1.0163918 2.3509528e-38
-0.26283339 0.1557992 1.0224667 2.3509528e-38
-0.27470276 0.15560549 1.0272237 2.3509528e-38
-0.28923723 0.15411499 1.0325547 2.3509528e-38
-0.32494095 0.14844304 1.0448586 2.3509528e-38
-0.36402211 0.13978073 1.0573589 2.3509528e-38
-0.39821416 0.13933145 1.0711051 2.3509528e-38
-0.41124967 0.14042346 1.0768437 2.3509528e-38
-0.42823133 0.13896494 1.083184 2.3509528e-38
-0.46907738 0.10781322 1.0875405 2.3509528e-38
-0.47222933 0.091815613 1.0825195 2.3509528e-38
-0.47579136 0.076463714 1.0779202 2.3509528e-38
-0.47788411 0.065247051 1.074352 2.3509528e-38
-0.46975303 0.034932718 1.0590947 2.3509528e-38
-0.47159496 0.016558649 1.0526038 2.3509528e-38
-0.47564158 -0.008190142 1.0444986 2.3509528e-38
-0.47280687 -0.027020177 1.0359237 2.3509528e-38
-0.47080335 -0.05104278 1.025641 2.3509528e-38
-0.47098768 -0.062060587 1.0213741 2.3509528e-38
-0.46952546 -0.075447708 1.015503 2.3509528e-38
-0.46035403 -0.10041382 1.0019298 2.3509528e-38
-0.44352174 -0.13790593 0.98030055 2.3509528e-38
-0.40902987 -0.12832174 0.9700321 2.3509528e-38
-0.38607487 -0.13343708 0.95866871 2.3509528e-38
-0.40744439 -0.15059769 0.96060795 2.3509528e-38
-0.41663846 -0.15149131 0.96399963 2.3509528e-38
-0.43375009 -0.15392581 0.97000825 2.3509528e-38
-0.47605789 -0.19055755 0.97280037 2.3509528e-38
-0.4728092 -0.20710243 0.96495742 2.3509528e-38
-0.47798246 -0.23204796 0.95723343 2.3509528e-38
-0.47150016 -0.27589068 0.93731624 2.3509528e-38
-0.47010541 -0.28676531 0.93246275 2.3509528e-38
-0.47413716 -0.31563804 0.92272621 2.3509528e-38
-0.47205141 -0.33026195 0.91611391 2.3509528e-38
-0.4707762 -0.3505452 0.9076013 2.3509528e-38
-0.4751969 -0.35574648 0.90735167 2.3509528e-38
-0.48898116 -0.36026353 0.91118479 2.3509528e-38
-0.50426322 -0.3616952 0.91684353 2.3509528e-38
-0.58501863 -0.14579415 1.2905188 8.2976067e-40
-0.59149486 -0.15761113 1.3256531 6.4608127e-40
-0.55887049 -0.14520974 1.2853954 6.4464494e-40
-0.56023639 -0.15842888 1.3239281 2.7694422e-40
-0.55726886 -0.13481878 1.2550375 1.0137848e-39
-0.61266345 -0.18310432 1.4023932 2.7694422e-40
-0.57931024 -0.18569383 1.4055339 1.8402972e-40
-0.61343616 -0.16792004 1.3584393 1.1074238e-39
-0.64178067 -0.18465942 1.4107219 8.3047813e-40
-0.57084072 -0.17029101 1.3597345 2.7622395e-40
-0.55727601 -0.18281272 1.3942862 1.8367099e-40
-0.3728328 -0.098203801 1.1246266 1.6548326e-39
-0.33886176 -0.097226247 1.1173371 2.0210984e-39
-0.32143393 -0.099832945 1.1226157 2.1140101e-39
-0.29591805 -0.093981065 1.1022923 2.7590109e-39
-0.29713479 -0.10344794 1.1299186 2.2069218e-39
-0.26925978 -0.093338057 1.0969321 2.8519254e-39
-0.24882558 -0.094675876 1.0981348 2.391669e-39
-0.25922263 -0.10609275 1.1326222 2.2076392e-39
-0.22126517 -0.094804153 1.0948942 2.760806e-39
-0.21481717 -0.10623618 1.1272173 2.3927494e-39
-0.20065546 -0.095623739 1.0945702 3.589838e-39
-0.52951449 -0.11013412 1.1797802 2.489282e-39
-0.54300249 -0.12095785 1.2129519 1.567676e-39
-0.51323366 -0.12264846 1.2139546 9.2122902e-40
-0.49274832 -0.11004424 1.1746998 1.4729595e-39
-0.48879805 -0.12646922 1.2218366 6.4320721e-40
-0.46261334 -0.11777779 1.1931872 9.1835496e-40
-0.51548141 -0.13832301 1.2597268 5.5173184e-40
-0.53537744 -0.15454406 1.3093981 2.7550789e-40
-0.48694038 -0.14000617 1.2608688 1.8367099e-40
-0.46416122 -0.14338401 1.2676829 1.8367099e-40
-0.49837479 -0.1507099 1.2934231 2.7550649e-40
-0.49710745 -0.15846202 1.3157488 1.8367099e-40
-0.46136254 -0.15199396 1.2922966 5.5101298e-40
-0.45973578 -0.16136706 1.3192782 2.7550649e-40
-0.46715266 -0.13151024 1.2336249 2.7550649e-40
-0.44940931 -0.10485193 1.1539537 1.3786086e-39
-0.43919134 -0.11157609 1.1721234 1.1945789e-39
-0.41166994 -0.10139383 1.1389734 1.6541151e-39
-0.41099939 -0.11102049 1.166816 1.2860557e-39
-0.43609554 -0.12108837 1.1993161 8.2651947e-40
-0.4398458 -0.12847336 1.2212343 5.5101298e-40
-0.41147038 -0.11978363 1.1923025 1.102026e-39
-0.4159869 -0.13158748 1.2271419 6.4284847e-40
-0.38782087 -0.10558064 1.1479944 1.6537564e-39
-0.36998621 -0.1130014 1.1671867 1.4700854e-39
-0.39156938 -0.12185667 1.1957085 1.2856969e-39
-0.38550919 -0.13207303 1.2245553 9.1835496e-40
-0.36896956 -0.12333109 1.1970237 1.0101905e-39
-0.44104868 -0.14221992 1.2612758 6.4284847e-40
-0.41661569 -0.14458197 1.2649258 6.4284847e-40
-0.44077545 -0.15592963 1.3010167 6.4284847e-40
-0.4137685 -0.15573698 1.2969174 5.5137171e-40
-0.41664734 -0.16339375 1.3195099 8.2651947e-40
-0.38557759 -0.14537767 1.2631658 6.4284847e-40
-0.36877176 -0.1405587 1.246981 4.5917748e-40
-0.38421741 -0.15610644 1.2941154 5.5137171e-40
-0.39129421 -0.16439714 1.3190975 5.5173044e-40
-0.3661176 -0.16451949 1.3161521 1.1956551e-39
-0.53866863 -0.18644923 1.402398 3.6734198e-40
-0.53645039 -0.16604307 1.3429015 1.8367379e-40
-0.53431374 -0.17406167 1.3658862 9.1835496e-41
-0.50786936 -0.16795334 1.3446972 1.8367099e-40
-0.50758052 -0.18136093 1.3835596 3.6734198e-40
-0.4847981 -0.16829668 1.3426689 2.7550649e-40
-0.48930764 -0.17629728 1.3664727 2.7550649e-40
-0.46042234 -0.16919962 1.3420932 4.5917748e-40
-0.46202284 -0.17693633 1.3647499 8.2651947e-40
-0.43977925 -0.16837403 1.3369918 8.268782e-40
-0.43731675 -0.17795579 1.3644693 1.1023847e-39
-0.41412163 -0.17050102 1.3397996 7.3540143e-40
-0.41036555 -0.17913035 1.364344 2.7586522e-40
-0.38739058 -0.17189141 1.3403295 8.2831313e-40
-0.34053302 -0.10881802 1.1511883 1.5622796e-39
-0.32252714 -0.1154997 1.1682137 1.5629971e-39
-0.34194118 -0.1254416 1.1996038 1.0101905e-39
-0.34420246 -0.13495652 1.2275064 8.268782e-40
-0.32006973 -0.12802544 1.2042333 1.4708029e-39
-0.29518351 -0.11443821 1.1615496 1.9310565e-39
-0.26933402 -0.11932058 1.1723263 1.9310565e-39
-0.29601875 -0.12668933 1.1972039 1.3796848e-39
-0.30272841 -0.13560468 1.2239501 1.1952964e-39
-0.2702629 -0.13059695 1.2051651 1.3800436e-39
-0.34530279 -0.14875132 1.2676743 9.1978989e-40
-0.31811994 -0.14330865 1.2483199 1.1952964e-39
-0.32125536 -0.15144904 1.2723491 1.1960138e-39
-0.34322515 -0.16324531 1.3094543 1.1960138e-39
-0.32060045 -0.16274737 1.3050437 1.2885668e-39
-0.2930263 -0.14420781 1.2476391 1.2874906e-39
-0.29805255 -0.15348917 1.2752266 1.1960138e-39
-0.26955497 -0.14194289 1.2379909 1.3793261e-39
-0.27035552 -0.15480691 1.275419 1.6555501e-39
-0.29670936 -0.16573356 1.310576 1.5647908e-39
-0.27287465 -0.16528359 1.3061459 1.7488205e-39
-0.24986187 -0.12102827 1.1747284 2.0232508e-39
-0.22352251 -0.11842255 1.1637155 1.6559088e-39
-0.24345818 -0.13314992 1.2090584 1.8395798e-39
-0.24940859 -0.14602068 1.2471811 1.748103e-39
-0.25017476 -0.15418388 1.2709658 1.9324915e-39
-0.24876061 -0.16091573 1.2903119 1.6584199e-39
-0.22047953 -0.086002439 1.0692542 3.5905527e-39
-0.19736594 -0.08551354 1.0648057 3.8667794e-39
-0.19536249 -0.083702527 1.0592886 2.3509528e-38
-0.22257367 -0.085481949 1.0680186 2.3509528e-38
-0.26469523 -0.087716237 1.0800227 2.3509528e-38
-0.2827037 -0.089120224 1.0864569 2.3509528e-38
-0.32691044 -0.090073936 1.095019 2.3509528e-38
-0.35460636 -0.095585451 1.1146407 2.3509528e-38
-0.37471458 -0.094525471 1.1142012 2.3509528e-38
-0.42522636 -0.099737786 1.1359456 2.3509528e-38
-0.47338253 -0.10440346 1.1557951 2.3509528e-38
-0.50475311 -0.10754789 1.1690307 2.3509528e-38
-0.5335111 -0.10639786 1.1694639 2.3509528e-38
-0.54206973 -0.11117098 1.1844344 2.3509528e-38
-0.55336154 -0.12041532 1.2127358 2.3509528e-38
-0.56755692 -0.13043448 1.2436658 2.3509528e-38
-0.58492333 -0.14162998 1.2784245 2.3509528e-38
-0.59489411 -0.14805064 1.2983602 2.3509528e-38
-0.61375272 -0.15808055 1.3299329 2.3509528e-38
-0.61993325 -0.16208874 1.3423723 2.3509528e-38
-0.62373197 -0.1675905 1.3588328 2.3509528e-38
-0.63297242 -0.17523037 1.3822101 2.3509528e-38
-0.64578348 -0.18606187 1.4153156 2.3509528e-38
-0.61863881 -0.18715809 1.4149379 2.3509528e-38
-0.57500505 -0.19260819 1.4250306 2.3509528e-38
-0.55549234 -0.18998805 1.4148706 2.3509528e-38
-0.53504574 -0.18813708 1.4068201 2.3509528e-38
-0.5141592 -0.1858647 1.3974891 2.3509528e-38
-0.49761313 -0.1854499 1.3941164 2.3509528e-38
-0.46329713 -0.17948166 1.3723019 2.3509528e-38
-0.44404298 -0.1804505 1.372589 2.3509528e-38
-0.40925223 -0.18191929 1.3722897 2.3509528e-38
-0.39803684 -0.17788999 1.359129 2.3509528e-38
-0.36452737 -0.17147575 1.3361262 2.3509528e-38
-0.33580983 -0.16865805 1.3241866 2.3509528e-38
-0.29772747 -0.16994989 1.3229424 2.3509528e-38
-0.26771194 -0.16493641 1.3044617 2.3509528e-38
-0.2395834 -0.15878701 1.2829328 2.3509528e-38
-0.23587547 -0.13829897 1.2230035 2.3509528e-38
-0.21681273 -0.12303859 1.1762288 2.3509528e-38
-0.21566652 -0.11904418 1.1644892 2.3509528e-38
-0.20472327 -0.10599404 1.1251916 2.3509528e-38
-0.19872433 -0.098944448 1.1039517 2.3509528e-38
-0.18861461 -0.09061636 1.0784637 2.3509528e-38
-0.1877445 -0.086188868 1.0655038 2.3509528e-38
-0.1871832 -0.084067374 1.059275 2.3509528e-38
-0.87272662 0.63374954 1.6561887 8.6674374e-39
-0.84821898 0.63112062 1.6559298 8.3904946e-39
-0.82729787 0.63246518 1.6530762 8.2068208e-39
-0.90062559 0.6334067 1.6589304 8.4834006e-39
-0.83247805 0.54206371 1.7198485 4.4264468e-39
-0.86759079 0.5964762 1.6830707 6.547298e-39
-0.84534496 0.58773762 1.687495 5.9015713e-39
