# .PCD v0.7 - Point Cloud Data file format
VERSION 0.7
FIELDS x y z rgb
SIZE 4 4 4 4
TYPE F F F F
COUNT 1 1 1 1
WIDTH 1010
HEIGHT 1
VIEWPOINT 0 0 0 1 0 0 0
POINTS 1010
DATA ascii
-0.23835164 -0.32751915 0.97800004 2.3509528e-38
-0.23915467 -0.303509 0.99200004 2.3509528e-38
-0.28633347 -0.26284298 0.99237484 2.3509528e-38
-0.30359492 -0.27467135 0.99800009 2.3509528e-38
-0.27438828 -0.27461395 0.98392105 2.3509528e-38
-0.51875699 -0.40317899 1.0220001 2.3509528e-38
-0.37124553 -0.38496363 0.97800004 2.3509528e-38
-0.50439316 -0.39501688 1.0115558 2.3509528e-38
-0.31121737 -0.3481082 0.96520007 2.3509528e-38
-0.28808972 -0.18301885 1.0220003 2.3509528e-38
-0.32182962 -0.17805275 1.0380001 2.3509528e-38
-0.33032274 -0.18836586 1.0380001 2.3509528e-38
-0.18450533 -0.19495496 0.96375024 2.3509528e-38
-0.21068667 -0.17773978 0.98900002 2.3509528e-38
-0.17974208 -0.16598193 0.98100007 2.3509528e-38
-0.18355428 -0.16813129 0.9772501 2.3509528e-38
-0.19162443 -0.17790635 0.97800004 2.3509528e-38
-0.21546632 -0.17661847 0.99735725 2.3509528e-38
-0.19622864 -0.17466694 0.98357129 2.3509528e-38
-0.53182197 -0.24234924 1.097 2.3509528e-38
-0.5329392 -0.20581168 1.1190003 2.3509528e-38
-0.4869765 -0.38197815 1.0325 2.3509528e-38
-0.49152511 -0.40346393 1.0250001 2.3509528e-38
-0.38452613 -0.33545417 1.0055 2.3509528e-38
-0.40380615 -0.32637858 1.0178462 2.3509528e-38
-0.35352862 -0.28561839 1.0171541 2.3509528e-38
-0.34542638 -0.29301155 1.0122943 2.3509528e-38
-0.17923042 -0.18207023 0.97200006 2.3509528e-38
-0.17679736 -0.26889646 0.93800002 2.3509528e-38
-0.17806153 -0.21489355 0.95485717 2.3509528e-38
-0.46413362 -0.30752438 1.0561429 2.3509528e-38
-0.4741917 -0.31502074 1.054 2.3509528e-38
-0.46005625 -0.36244118 1.031 2.3509528e-38
-0.45630503 -0.33346769 1.0410001 2.3509528e-38
-0.44469091 -0.34165284 1.0310001 2.3509528e-38
-0.18889362 -0.3609789 0.91300005 2.3509528e-38
-0.17765066 -0.35636005 0.90600008 2.3509528e-38
-0.24542886 -0.3744441 0.96434802 2.3509528e-38
-0.17931923 -0.33686209 0.92000002 2.3509528e-38
-0.47933504 -0.39242756 1.0220001 2.3509528e-38
-0.31094757 -0.37700436 0.95900011 2.3509528e-38
-0.32166564 -0.30779332 0.98900002 2.3509528e-38
-0.3325941 -0.3258757 0.98862511 2.3509528e-38
-0.46338764 -0.37751061 1.0184546 2.3509528e-38
-0.41212365 -0.24782491 1.0470001 2.3509528e-38
-0.36138654 -0.2298094 1.028 2.3509528e-38
-0.47644311 -0.38449585 1.0223532 2.3509528e-38
-0.51581603 -0.30432934 1.0721667 2.3509528e-38
-0.5315311 -0.26432166 1.0964001 2.3509528e-38
-0.45462459 -0.30513805 1.0530386 2.3509528e-38
-0.35476837 -0.35490867 0.98297155 2.3509528e-38
-0.32462615 -0.35475478 0.97222561 2.3509528e-38
-0.24502015 -0.31524318 0.98635709 2.3509528e-38
-0.30486792 -0.32484269 0.97410005 2.3509528e-38
-0.3552348 -0.38347718 0.97640002 2.3509528e-38
-0.39591128 -0.39071122 0.98820001 2.3509528e-38
-0.48762897 -0.40304509 1.0232859 2.3509528e-38
-0.17871639 -0.33551896 0.9172501 2.3509528e-38
-0.17804107 -0.31607938 0.9155001 2.3509528e-38
-0.28517655 -0.19539347 1.0151566 2.3509528e-38
-0.28421676 -0.26687762 0.98889494 2.3509528e-38
-0.32750115 -0.18194416 1.0414286 2.3509528e-38
-0.33595949 -0.19510017 1.0410002 2.3509528e-38
-0.36505768 -0.18478231 1.0552188 2.3509528e-38
-0.18605515 -0.16448408 0.98390019 2.3509528e-38
-0.50826752 -0.20575513 1.1123334 2.3509528e-38
-0.3723416 -0.17582028 1.066 2.3509528e-38
-0.45220026 -0.36787054 1.0190001 2.3509528e-38
-0.47545666 -0.32951534 1.0470001 2.3509528e-38
-0.37682882 -0.33488074 1.0014443 2.3509528e-38
-0.37453282 -0.30519605 1.0155314 2.3509528e-38
-0.37096322 -0.33509183 0.99800009 2.3509528e-38
-0.38347396 -0.30712456 1.0190001 2.3509528e-38
-0.41082945 -0.33539331 1.0190001 2.3509528e-38
-0.41697669 -0.34207496 1.0220002 2.3509528e-38
-0.34452248 -0.28517854 1.0153003 2.3509528e-38
-0.32829416 -0.3213369 0.99200004 2.3509528e-38
-0.41751906 -0.30070499 1.041 2.3509528e-38
-0.38761288 -0.29337618 1.0316001 2.3509528e-38
-0.37580818 -0.18790548 1.0628333 2.3509528e-38
-0.36482635 -0.1950372 1.0521153 2.3509528e-38
-0.34406972 -0.18536504 1.0452001 2.3509528e-38
-0.46238694 -0.1967645 1.097 2.3509528e-38
-0.17820112 -0.25492269 0.94107157 2.3509528e-38
-0.1782366 -0.24507846 0.94563156 2.3509528e-38
-0.48653752 -0.31382665 1.0600003 2.3509528e-38
-0.42266902 -0.32714045 1.028 2.3509528e-38
-0.19406411 -0.35492408 0.91589665 2.3509528e-38
-0.19551994 -0.36149475 0.91611123 2.3509528e-38
-0.51303935 -0.4017027 1.016 2.3509528e-38
-0.18443315 -0.34533823 0.91469049 2.3509528e-38
-0.44513488 -0.36737514 1.0173637 2.3509528e-38
-0.45441952 -0.3471058 1.028 2.3509528e-38
-0.44496113 -0.34633386 1.0277692 2.3509528e-38
-0.42109719 -0.36989459 1.0070001 2.3509528e-38
-0.40525848 -0.39134398 0.99200004 2.3509528e-38
-0.42287478 -0.3922528 0.99800009 2.3509528e-38
-0.3443985 -0.38181463 0.97000027 2.3509528e-38
-0.34487453 -0.31152788 1.001 2.3509528e-38
-0.47454256 -0.37514189 1.0236551 2.3509528e-38
-0.39867395 -0.38302022 0.9920001 2.3509528e-38
-0.51493698 -0.26482144 1.0843446 2.3509528e-38
-0.50135428 -0.25964674 1.077 2.3509528e-38
-0.49361211 -0.2570031 1.0769999 2.3509528e-38
-0.50317019 -0.29589191 1.0657694 2.3509528e-38
-0.49903372 -0.28234804 1.0700001 2.3509528e-38
-0.47558141 -0.27460802 1.0712352 2.3509528e-38
-0.46385914 -0.285243 1.0633075 2.3509528e-38
-0.51435179 -0.24511749 1.0955789 2.3509528e-38
-0.48449683 -0.2552287 1.076857 2.3509528e-38
-0.53290182 -0.23647451 1.105 2.3509528e-38
-0.53272843 -0.22188872 1.115 2.3509528e-38
-0.50029176 -0.24871647 1.087 2.3509528e-38
-0.40825784 -0.1873799 1.0813334 2.3509528e-38
-0.47537056 -0.25518292 1.0762726 2.3509528e-38
-0.46624413 -0.26460662 1.0703332 2.3509528e-38
-0.24496526 -0.29465079 0.99440032 2.3509528e-38
-0.29574445 -0.28251836 0.99239999 2.3509528e-38
-0.32452288 -0.34497947 0.97542876 2.3509528e-38
-0.33279216 -0.35609114 0.97719997 2.3509528e-38
-0.3188875 -0.36565769 0.97000015 2.3509528e-38
-0.34515083 -0.34485456 0.98563886 2.3509528e-38
-0.35507289 -0.34499529 0.98773664 2.3509528e-38
-0.24545127 -0.32463941 0.98399979 2.3509528e-38
-0.28982335 -0.29326341 0.98100013 2.3509528e-38
-0.2135231 -0.36318928 0.9255386 2.3509528e-38
-0.18519513 -0.26508889 0.94305003 2.3509528e-38
-0.17816494 -0.27520102 0.93323088 2.3509528e-38
-0.18871127 -0.28183079 0.94000006 2.3509528e-38
-0.18996491 -0.31062931 0.93000007 2.3509528e-38
-0.30460858 -0.34633043 0.96400023 2.3509528e-38
-0.31465697 -0.33565459 0.97544014 2.3509528e-38
-0.22560067 -0.32416785 0.95352012 2.3509528e-38
-0.21502599 -0.29468238 0.95275021 2.3509528e-38
-0.30529392 -0.35505167 0.96200001 2.3509528e-38
-0.28762996 -0.37350211 0.95100015 2.3509528e-38
-0.31710085 -0.38035235 0.96200007 2.3509528e-38
-0.30803481 -0.37170798 0.96200001 2.3509528e-38
-0.38447386 -0.37521222 0.98803133 2.3509528e-38
-0.19073285 -0.3380076 0.91800004 2.3509528e-38
-0.305951 -0.18363085 1.0310001 2.3509528e-38
-0.28635755 -0.25475517 0.99216664 2.3509528e-38
-0.32081074 -0.23712099 1.0070001 2.3509528e-38
-0.37762839 -0.25409326 1.0314617 2.3509528e-38
-0.38279033 -0.26788566 1.028 2.3509528e-38
-0.37251583 -0.29711935 1.0190001 2.3509528e-38
-0.36406326 -0.20580611 1.045091 2.3509528e-38
-0.3559179 -0.21142131 1.041 2.3509528e-38
-0.37819225 -0.21167585 1.0513334 2.3509528e-38
-0.18536496 -0.18410937 0.97289997 2.3509528e-38
-0.19723366 -0.20339166 0.972 2.3509528e-38
-0.19898582 -0.21174131 0.97000015 2.3509528e-38
-0.1897545 -0.22011521 0.96200007 2.3509528e-38
-0.17879397 -0.20480905 0.95750004 2.3509528e-38
-0.18342826 -0.21513052 0.95733309 2.3509528e-38
-0.18477052 -0.17450203 0.97575021 2.3509528e-38
-0.18151151 -0.18772034 0.96600008 2.3509528e-38
-0.36224306 -0.37939066 0.97800004 2.3509528e-38
-0.37701455 -0.34344849 1.0010002 2.3509528e-38
-0.37341866 -0.346549 0.99705267 2.3509528e-38
-0.50887346 -0.19887008 1.1120001 2.3509528e-38
-0.51500189 -0.19800149 1.1126002 2.3509528e-38
-0.49571049 -0.21411398 1.1034999 2.3509528e-38
-0.4151718 -0.19291049 1.08 2.3509528e-38
-0.43474111 -0.19522774 1.081846 2.3509528e-38
-0.37472782 -0.21538232 1.0441157 2.3509528e-38
-0.51561219 -0.38415834 1.0239565 2.3509528e-38
-0.4768815 -0.36331236 1.031643 2.3509528e-38
-0.41050354 -0.35930094 1.0070001 2.3509528e-38
-0.40407869 -0.33465084 1.0152502 2.3509528e-38
-0.3841159 -0.31569067 1.0164289 2.3509528e-38
-0.35582533 -0.31461242 1.0023447 2.3509528e-38
-0.39869922 -0.32164726 1.0220001 2.3509528e-38
-0.3733871 -0.19716896 1.0559092 2.3509528e-38
-0.34825584 -0.18563417 1.0500001 2.3509528e-38
-0.17807333 -0.26497489 0.94000024 2.3509528e-38
-0.21844253 -0.22360261 0.98100001 2.3509528e-38
-0.51721865 -0.31164467 1.07075 2.3509528e-38
-0.53335613 -0.32076618 1.0730001 2.3509528e-38
-0.42555183 -0.33493292 1.0265515 2.3509528e-38
-0.43500692 -0.32533988 1.0353751 2.3509528e-38
-0.43406042 -0.31494719 1.0380001 2.3509528e-38
-0.18069503 -0.35740998 0.90800005 2.3509528e-38
-0.40771434 -0.37461409 1.0014499 2.3509528e-38
-0.46406403 -0.35541916 1.0275999 2.3509528e-38
-0.4536992 -0.33631811 1.0363002 2.3509528e-38
-0.41406387 -0.31595644 1.0270399 2.3509528e-38
-0.44545829 -0.35473076 1.0260713 2.3509528e-38
-0.44484881 -0.38489187 1.0118623 2.3509528e-38
-0.42436254 -0.37599987 1.0055714 2.3509528e-38
-0.43384701 -0.38654986 1.0049598 2.3509528e-38
-0.41608146 -0.39274484 0.99650007 2.3509528e-38
-0.3645578 -0.38394555 0.97700024 2.3509528e-38
-0.33713028 -0.28583729 1.0113848 2.3509528e-38
-0.31609768 -0.28416449 1.0027999 2.3509528e-38
-0.31572372 -0.27502093 1.003875 2.3509528e-38
-0.33912095 -0.292193 1.01 2.3509528e-38
-0.33521768 -0.31501791 0.99476933 2.3509528e-38
-0.36679074 -0.31344342 1.0100001 2.3509528e-38
-0.41349053 -0.38848129 0.99684626 2.3509528e-38
-0.53115481 -0.30013561 1.08 2.3509528e-38
-0.50716627 -0.26368672 1.0806667 2.3509528e-38
-0.50644052 -0.29337692 1.0706428 2.3509528e-38
-0.51418358 -0.28508356 1.0752399 2.3509528e-38
-0.46503881 -0.2746667 1.0667142 2.3509528e-38
-0.52415103 -0.25480482 1.093375 2.3509528e-38
-0.46549648 -0.25493374 1.0704285 2.3509528e-38
-0.4586983 -0.24388866 1.0700001 2.3509528e-38
-0.53165919 -0.22590999 1.1060001 2.3509528e-38
-0.49321282 -0.23837031 1.087 2.3509528e-38
-0.41602212 -0.26453415 1.0499998 2.3509528e-38
-0.44935131 -0.22287671 1.08 2.3509528e-38
-0.44744188 -0.28458792 1.0600001 2.3509528e-38
-0.45394903 -0.29683262 1.057 2.3509528e-38
-0.34417367 -0.27511624 1.0148466 2.3509528e-38
-0.31372774 -0.36489388 0.96431583 2.3509528e-38
-0.33497328 -0.36556688 0.97526312 2.3509528e-38
-0.32938382 -0.34142396 0.98100007 2.3509528e-38
-0.33724678 -0.35346413 0.98100019 2.3509528e-38
-0.34417385 -0.33602414 0.98890013 2.3509528e-38
-0.28422332 -0.27510005 0.98680776 2.3509528e-38
-0.2280097 -0.35297713 0.94029999 2.3509528e-38
-0.23194404 -0.36565238 0.936059 2.3509528e-38
-0.23059621 -0.32534987 0.95650005 2.3509528e-38
-0.19167046 -0.26434916 0.94750005 2.3509528e-38
-0.17850237 -0.28388581 0.93187499 2.3509528e-38
-0.20334995 -0.28603217 0.94633335 2.3509528e-38
-0.18645787 -0.27421868 0.9407503 2.3509528e-38
-0.19281046 -0.29568559 0.93633336 2.3509528e-38
-0.23296452 -0.22894064 0.98300016 2.3509528e-38
-0.223552 -0.22466494 0.98100001 2.3509528e-38
-0.30495182 -0.33501142 0.97199982 2.3509528e-38
-0.3087436 -0.31333029 0.98100013 2.3509528e-38
-0.3145968 -0.30613717 0.98711544 2.3509528e-38
-0.22398478 -0.29470283 0.95792836 2.3509528e-38
-0.2251956 -0.31459051 0.95332283 2.3509528e-38
-0.29406631 -0.36545655 0.95696539 2.3509528e-38
-0.38786536 -0.37134197 0.99200004 2.3509528e-38
-0.38526055 -0.36430132 0.99354303 2.3509528e-38
-0.34474862 -0.37448522 0.97267646 2.3509528e-38
-0.36497223 -0.36539683 0.98535711 2.3509528e-38
-0.19263998 -0.32538795 0.92560017 2.3509528e-38
-0.1988204 -0.35324639 0.92066669 2.3509528e-38
-0.18204992 -0.32388273 0.91750014 2.3509528e-38
-0.2124593 -0.35551497 0.92587519 2.3509528e-38
-0.28337714 -0.18572773 1.0178572 2.3509528e-38
-0.29222107 -0.21960324 0.99800003 2.3509528e-38
-0.28533044 -0.21824053 0.99533337 2.3509528e-38
-0.30910391 -0.20248544 1.0220001 2.3509528e-38
-0.3168875 -0.19348274 1.0310001 2.3509528e-38
-0.29473779 -0.26438099 0.99284399 2.3509528e-38
-0.35249078 -0.297757 1.0070001 2.3509528e-38
-0.33125991 -0.29804474 0.9970001 2.3509528e-38
-0.39038143 -0.24842454 1.0380001 2.3509528e-38
-0.40685168 -0.30355123 1.0325295 2.3509528e-38
-0.39531231 -0.30444962 1.0257776 2.3509528e-38
-0.3861379 -0.27563179 1.0321251 2.3509528e-38
-0.39461377 -0.28477696 1.0351037 2.3509528e-38
-0.20479637 -0.18491508 0.98566657 2.3509528e-38
-0.21689153 -0.1911498 0.99200004 2.3509528e-38
-0.28585362 -0.20258366 1.0104617 2.3509528e-38
-0.19107985 -0.19718353 0.96700013 2.3509528e-38
-0.17893469 -0.2250174 0.95418197 2.3509528e-38
-0.17935315 -0.19650134 0.96200007 2.3509528e-38
-0.37721217 -0.36286283 0.99200004 2.3509528e-38
-0.39611006 -0.34398529 1.0108185 2.3509528e-38
-0.51488847 -0.20529404 1.1128572 2.3509528e-38
-0.51722991 -0.21358755 1.1125002 2.3509528e-38
-0.42480347 -0.18438837 1.0830799 2.3509528e-38
-0.42231339 -0.23676607 1.0553637 2.3509528e-38
-0.51557851 -0.23397242 1.1013334 2.3509528e-38
-0.53223348 -0.35390443 1.0470001 2.3509528e-38
-0.46621311 -0.3388159 1.0380001 2.3509528e-38
-0.40507594 -0.36508536 1.0033076 2.3509528e-38
-0.37510929 -0.26513165 1.0269998 2.3509528e-38
-0.36538494 -0.28463176 1.0234399 2.3509528e-38
-0.38585001 -0.32494369 1.0130004 2.3509528e-38
-0.44369552 -0.32529113 1.0380001 2.3509528e-38
-0.42803246 -0.285355 1.05 2.3509528e-38
-0.40619269 -0.32392785 1.0220003 2.3509528e-38
-0.38634717 -0.20376456 1.0603158 2.3509528e-38
-0.39563128 -0.20519938 1.0625714 2.3509528e-38
-0.35362798 -0.19753851 1.0461 2.3509528e-38
-0.48543096 -0.20563172 1.1027141 2.3509528e-38
-0.46482113 -0.20525515 1.0936364 2.3509528e-38
-0.21794216 -0.24458745 0.97164297 2.3509528e-38
-0.21193416 -0.23990947 0.96700007 2.3509528e-38
-0.49475658 -0.29537341 1.0640434 2.3509528e-38
-0.48534867 -0.32460624 1.0517334 2.3509528e-38
-0.47723982 -0.30798441 1.0550001 2.3509528e-38
-0.44511133 -0.33519411 1.0343335 2.3509528e-38
-0.46909469 -0.35249889 1.031 2.3509528e-38
-0.53190565 -0.34833166 1.0470001 2.3509528e-38
-0.41595086 -0.31137347 1.0319002 2.3509528e-38
-0.43552923 -0.28547156 1.0528572 2.3509528e-38
-0.445748 -0.3623156 1.0233126 2.3509528e-38
-0.42774072 -0.37192425 1.0106001 2.3509528e-38
-0.44283623 -0.39450273 1.0070001 2.3509528e-38
-0.33671644 -0.21282035 1.0310001 2.3509528e-38
-0.31854823 -0.29046685 1.001 2.3509528e-38
-0.30830276 -0.29234949 0.99250007 2.3509528e-38
-0.33810622 -0.30462748 1.0014002 2.3509528e-38
-0.34476259 -0.31567222 0.99766642 2.3509528e-38
-0.37645611 -0.32290316 1.0113503 2.3509528e-38
-0.51443541 -0.32559302 1.0549998 2.3509528e-38
-0.51574302 -0.32106161 1.0600001 2.3509528e-38
-0.51467854 -0.29450157 1.0720869 2.3509528e-38
-0.51142544 -0.2763271 1.0770001 2.3509528e-38
-0.46339878 -0.26808658 1.067 2.3509528e-38
-0.50530308 -0.24547729 1.090762 2.3509528e-38
-0.4725571 -0.2454842 1.077 2.3509528e-38
-0.41478118 -0.1974768 1.0769999 2.3509528e-38
-0.39881057 -0.27834606 1.041 2.3509528e-38
-0.40411621 -0.26520151 1.0424403 2.3509528e-38
-0.45628369 -0.20279005 1.091143 2.3509528e-38
-0.44685602 -0.19582254 1.091143 2.3509528e-38
-0.43993762 -0.23169424 1.0700001 2.3509528e-38
-0.43954313 -0.26112393 1.0600001 2.3509528e-38
-0.43542486 -0.22352488 1.0718751 2.3509528e-38
-0.44168612 -0.19678143 1.087 2.3509528e-38
-0.42552975 -0.25472018 1.053355 2.3509528e-38
-0.43358099 -0.25525659 1.0555 2.3509528e-38
-0.44513056 -0.26511306 1.0615 2.3509528e-38
-0.22726934 -0.26409271 0.97042882 2.3509528e-38
-0.30541438 -0.36420816 0.96200007 2.3509528e-38
-0.29463667 -0.28707013 0.98742115 2.3509528e-38
-0.20841652 -0.25313663 0.9625001 2.3509528e-38
-0.18477595 -0.30613145 0.9240455 2.3509528e-38
-0.27515647 -0.32527617 0.96215802 2.3509528e-38
-0.27435672 -0.31674758 0.96412015 2.3509528e-38
-0.27529502 -0.31226358 0.97000015 2.3509528e-38
-0.18220589 -0.27624798 0.93691671 2.3509528e-38
-0.19159901 -0.28863198 0.93800002 2.3509528e-38
-0.22356939 -0.26523718 0.96582639 2.3509528e-38
-0.30736172 -0.3416329 0.97042865 2.3509528e-38
-0.23083729 -0.3055433 0.95750004 2.3509528e-38
-0.23071411 -0.27973029 0.96400005 2.3509528e-38
-0.38528833 -0.38480601 0.98441374 2.3509528e-38
-0.35398015 -0.36389902 0.98100042 2.3509528e-38
-0.20813446 -0.34475544 0.93000031 2.3509528e-38
-0.20152421 -0.33773857 0.92733341 2.3509528e-38
-0.1949417 -0.33433843 0.92308116 2.3509528e-38
-0.31465635 -0.22788937 1.0070001 2.3509528e-38
-0.30620974 -0.24371818 1.0032855 2.3509528e-38
-0.32493889 -0.194832 1.0349567 2.3509528e-38
-0.31059423 -0.26772347 0.99800003 2.3509528e-38
-0.29534292 -0.27431214 0.99284011 2.3509528e-38
-0.18526705 -0.23516665 0.95408344 2.3509528e-38
-0.20258793 -0.22609693 0.96594125 2.3509528e-38
-0.34531337 -0.29744792 1.0064375 2.3509528e-38
-0.3586005 -0.3001619 1.01 2.3509528e-38
-0.31457934 -0.29479429 0.99437946 2.3509528e-38
-0.2954357 -0.29457036 0.98250014 2.3509528e-38
-0.2950657 -0.25480357 0.99445486 2.3509528e-38
-0.35688806 -0.25574487 1.0220002 2.3509528e-38
-0.34492162 -0.25534099 1.0189148 2.3509528e-38
-0.41100764 -0.29877681 1.0380001 2.3509528e-38
-0.40581781 -0.23423657 1.0500002 2.3509528e-38
-0.38570189 -0.21454357 1.0532105 2.3509528e-38
-0.38128161 -0.23750478 1.0380001 2.3509528e-38
-0.40478438 -0.24584807 1.0455654 2.3509528e-38
-0.38374528 -0.226346 1.0438236 2.3509528e-38
-0.37873316 -0.23180294 1.041 2.3509528e-38
-0.39494321 -0.29300484 1.0340557 2.3509528e-38
-0.38597336 -0.30319935 1.0223531 2.3509528e-38
-0.21198721 -0.18662678 0.98899996 2.3509528e-38
-0.21215971 -0.21589336 0.97690916 2.3509528e-38
-0.22632849 -0.22495981 0.97755015 2.3509528e-38
-0.19492736 -0.21527988 0.96446174 2.3509528e-38
-0.36154872 -0.34941041 0.98900002 2.3509528e-38
-0.38434574 -0.35702315 0.99725008 2.3509528e-38
-0.52494806 -0.21499591 1.1154761 2.3509528e-38
-0.51298428 -0.21710062 1.106909 2.3509528e-38
-0.50587732 -0.22382148 1.101 2.3509528e-38
-0.40372697 -0.35716045 1.00595 2.3509528e-38
-0.43534574 -0.30401349 1.0437933 2.3509528e-38
-0.37465355 -0.3153404 1.0140718 2.3509528e-38
-0.40503472 -0.31582057 1.0252812 2.3509528e-38
-0.34468374 -0.19565068 1.0429003 2.3509528e-38
-0.49335381 -0.21830666 1.097 2.3509528e-38
-0.20641495 -0.22311722 0.97093773 2.3509528e-38
-0.22529113 -0.24473643 0.97428191 2.3509528e-38
-0.49493513 -0.30478159 1.0623749 2.3509528e-38
-0.48240706 -0.30782872 1.057 2.3509528e-38
-0.47479886 -0.33393341 1.0433754 2.3509528e-38
-0.42486465 -0.34324738 1.0235715 2.3509528e-38
-0.41505915 -0.3254877 1.0259308 2.3509528e-38
-0.47851187 -0.34101194 1.0410001 2.3509528e-38
-0.51927507 -0.35135484 1.041 2.3509528e-38
-0.514893 -0.37579989 1.0271176 2.3509528e-38
-0.42468631 -0.29516113 1.0449133 2.3509528e-38
-0.44557437 -0.37536979 1.0152503 2.3509528e-38
-0.4338606 -0.39384902 1.002412 2.3509528e-38
-0.42511505 -0.38520253 1.0037094 2.3509528e-38
-0.33518562 -0.20495805 1.0336668 2.3509528e-38
-0.32766607 -0.31423473 0.99199992 2.3509528e-38
-0.34461004 -0.32515964 0.99397379 2.3509528e-38
-0.38769332 -0.33203751 1.0100001 2.3509528e-38
-0.53151196 -0.31596696 1.0746001 2.3509528e-38
-0.5242337 -0.33547607 1.051774 2.3509528e-38
-0.51424521 -0.31574729 1.061913 2.3509528e-38
-0.49295759 -0.27781478 1.067 2.3509528e-38
-0.49405527 -0.22496651 1.0938667 2.3509528e-38
-0.40435645 -0.19565082 1.0748947 2.3509528e-38
-0.39737809 -0.18580705 1.0726001 2.3509528e-38
-0.41519663 -0.28510451 1.0430871 2.3509528e-38
-0.46185538 -0.21497422 1.0862501 2.3509528e-38
-0.45354801 -0.20653246 1.0865 2.3509528e-38
-0.43708348 -0.20409706 1.0803334 2.3509528e-38
-0.42298937 -0.21869731 1.067 2.3509528e-38
-0.42204398 -0.19827572 1.0770001 2.3509528e-38
-0.44448993 -0.22584049 1.076 2.3509528e-38
-0.4389236 -0.25523856 1.0600001 2.3509528e-38
-0.45404479 -0.24544986 1.067 2.3509528e-38
-0.32485923 -0.33425835 0.98262841 2.3509528e-38
-0.30401739 -0.29563412 0.98732007 2.3509528e-38
-0.21659677 -0.27395782 0.96223527 2.3509528e-38
-0.28457871 -0.32574275 0.96416157 2.3509528e-38
-0.23208378 -0.35609907 0.94099998 2.3509528e-38
-0.28545415 -0.3050105 0.9738 2.3509528e-38
-0.28447407 -0.22506203 0.99400032 2.3509528e-38
-0.19535206 -0.28448445 0.94248593 2.3509528e-38
-0.1911484 -0.25680372 0.94800007 2.3509528e-38
-0.28778836 -0.32131714 0.97000015 2.3509528e-38
-0.23147398 -0.26493403 0.9703334 2.3509528e-38
-0.20594516 -0.27452007 0.95320702 2.3509528e-38
-0.33970395 -0.36120421 0.98100007 2.3509528e-38
-0.18561035 -0.31463167 0.92244458 2.3509528e-38
-0.20848887 -0.32056195 0.94000006 2.3509528e-38
-0.21490347 -0.34528613 0.93164718 2.3509528e-38
-0.20499249 -0.35471025 0.92294997 2.3509528e-38
-0.30542123 -0.23476508 1.0037856 2.3509528e-38
-0.31512988 -0.24539456 1.0069001 2.3509528e-38
-0.32560804 -0.23482902 1.0122858 2.3509528e-38
-0.29436189 -0.19532423 1.0177004 2.3509528e-38
-0.1871549 -0.24401321 0.95139146 2.3509528e-38
-0.20508075 -0.23620805 0.96543503 2.3509528e-38
-0.32769081 -0.25476336 1.0100002 2.3509528e-38
-0.32507727 -0.29623601 0.99679995 2.3509528e-38
-0.29483351 -0.24503925 0.99521458 2.3509528e-38
-0.36378884 -0.23633872 1.0273999 2.3509528e-38
-0.34825784 -0.2246398 1.0310001 2.3509528e-38
-0.4045392 -0.25535193 1.044 2.3509528e-38
-0.37719709 -0.24448615 1.0331055 2.3509528e-38
-0.37871036 -0.26121071 1.031 2.3509528e-38
-0.39474761 -0.2740545 1.0367827 2.3509528e-38
-0.38555467 -0.23451853 1.0412729 2.3509528e-38
-0.38151366 -0.28598502 1.028 2.3509528e-38
-0.19268407 -0.20522545 0.96523529 2.3509528e-38
-0.37578255 -0.35438943 0.99419236 2.3509528e-38
-0.52459192 -0.20455053 1.1164 2.3509528e-38
-0.48467448 -0.22459713 1.09356 2.3509528e-38
-0.51478606 -0.2247583 1.1047306 2.3509528e-38
-0.35882929 -0.28222531 1.0220001 2.3509528e-38
-0.37809229 -0.30014437 1.0220001 2.3509528e-38
-0.47496778 -0.21533501 1.0946923 2.3509528e-38
-0.2142337 -0.22626637 0.97538483 2.3509528e-38
-0.50525755 -0.32422164 1.05272 2.3509528e-38
-0.44839573 -0.32336813 1.0410001 2.3509528e-38
-0.50392586 -0.36481625 1.0254443 2.3509528e-38
-0.51609468 -0.37358853 1.0310001 2.3509528e-38
-0.42222023 -0.27811462 1.0470001 2.3509528e-38
-0.4352437 -0.37532321 1.0122731 2.3509528e-38
-0.34155986 -0.21899484 1.028 2.3509528e-38
-0.33675355 -0.32313082 0.99288225 2.3509528e-38
-0.52744651 -0.3415055 1.0500001 2.3509528e-38
-0.4656904 -0.23210129 1.08 2.3509528e-38
-0.38936272 -0.21094353 1.0600001 2.3509528e-38
-0.40794811 -0.22023621 1.0600002 2.3509528e-38
-0.40279031 -0.28581643 1.0380001 2.3509528e-38
-0.44576228 -0.21395616 1.08048 2.3509528e-38
-0.44587794 -0.23232825 1.0712 2.3509528e-38
-0.43427464 -0.23518628 1.0628333 2.3509528e-38
-0.42602408 -0.21387497 1.0725769 2.3509528e-38
-0.2830283 -0.28835788 0.97733337 2.3509528e-38
-0.29545152 -0.32473889 0.97042835 2.3509528e-38
-0.28132057 -0.36692187 0.94800007 2.3509528e-38
-0.29135737 -0.34665823 0.95900005 2.3509528e-38
-0.29704747 -0.30083153 0.98100007 2.3509528e-38
-0.21563821 -0.26465917 0.96303457 2.3509528e-38
-0.18573013 -0.2933208 0.93182158 2.3509528e-38
-0.28600183 -0.31469008 0.97138453 2.3509528e-38
-0.19176634 -0.31774119 0.92644447 2.3509528e-38
-0.21361451 -0.30705047 0.94713342 2.3509528e-38
-0.19510438 -0.30456439 0.93397444 2.3509528e-38
-0.22190276 -0.32729018 0.94659996 2.3509528e-38
-0.20240919 -0.31598368 0.93712497 2.3509528e-38
-0.21628858 -0.35405675 0.93100017 2.3509528e-38
-0.30695021 -0.22253889 1.0100002 2.3509528e-38
-0.31490862 -0.23507795 1.0070001 2.3509528e-38
-0.29360908 -0.23534338 0.99577796 2.3509528e-38
-0.30209336 -0.19792227 1.0185001 2.3509528e-38
-0.33484322 -0.25473401 1.0152801 2.3509528e-38
-0.32798979 -0.2639856 1.0100001 2.3509528e-38
-0.32318699 -0.2646645 1.0063334 2.3509528e-38
-0.30783117 -0.25505939 1.0032501 2.3509528e-38
-0.3342849 -0.21676095 1.0274706 2.3509528e-38
-0.42839193 -0.24068007 1.0600001 2.3509528e-38
-0.39159471 -0.2560077 1.0380001 2.3509528e-38
-0.37498498 -0.27493969 1.027793 2.3509528e-38
-0.39101261 -0.22854963 1.0470001 2.3509528e-38
-0.41505727 -0.21568765 1.0655237 2.3509528e-38
-0.37512144 -0.29349989 1.0235652 2.3509528e-38
-0.50483251 -0.34603497 1.0370479 2.3509528e-38
-0.41569266 -0.27480084 1.0441307 2.3509528e-38
-0.34388974 -0.20640004 1.0380001 2.3509528e-38
-0.32546222 -0.30449253 0.99365544 2.3509528e-38
-0.46435058 -0.2372233 1.0756428 2.3509528e-38
-0.47721002 -0.23105602 1.09 2.3509528e-38
-0.46918324 -0.22073589 1.09 2.3509528e-38
-0.40128803 -0.19924091 1.067 2.3509528e-38
-0.4081026 -0.20344605 1.0708573 2.3509528e-38
-0.39563531 -0.21164049 1.0600001 2.3509528e-38
-0.40169698 -0.21822293 1.057 2.3509528e-38
-0.40702406 -0.28345668 1.0410002 2.3509528e-38
-0.4421863 -0.21873271 1.0770001 2.3509528e-38
-0.43501583 -0.26513001 1.0557728 2.3509528e-38
-0.2858099 -0.36445591 0.95187515 2.3509528e-38
-0.29125938 -0.35480985 0.95845449 2.3509528e-38
-0.29377824 -0.33633614 0.96572751 2.3509528e-38
-0.30577627 -0.30398202 0.98333353 2.3509528e-38
-0.19601509 -0.31455329 0.93233335 2.3509528e-38
-0.21365856 -0.31506625 0.94435728 2.3509528e-38
-0.29924229 -0.23430407 1.001 2.3509528e-38
-0.31866074 -0.21114632 1.0220001 2.3509528e-38
-0.31319916 -0.20921634 1.0190001 2.3509528e-38
-0.3450391 -0.26568434 1.0170004 2.3509528e-38
-0.30407625 -0.26583362 0.99706256 2.3509528e-38
-0.35457042 -0.23517764 1.024906 2.3509528e-38
-0.34398904 -0.24506837 1.0190005 2.3509528e-38
-0.39485747 -0.22472663 1.0529234 2.3509528e-38
-0.43579191 -0.24446774 1.0615789 2.3509528e-38
-0.39365503 -0.26529163 1.0378335 2.3509528e-38
-0.41604537 -0.22403041 1.0614117 2.3509528e-38
-0.51481605 -0.35537437 1.0350589 2.3509528e-38
-0.40552479 -0.27489114 1.0410002 2.3509528e-38
-0.33956632 -0.23026 1.0220001 2.3509528e-38
-0.47040179 -0.2290239 1.0840001 2.3509528e-38
-0.40581635 -0.21457662 1.0612726 2.3509528e-38
-0.42675442 -0.23325855 1.061125 2.3509528e-38
-0.22235388 -0.28762922 0.95814288 2.3509528e-38
-0.20507789 -0.32512745 0.93418938 2.3509528e-38
-0.29750562 -0.21161857 1.01 2.3509528e-38
-0.31964144 -0.23198354 1.01 2.3509528e-38
-0.32586145 -0.21362871 1.0236001 2.3509528e-38
-0.31539512 -0.20408148 1.0239285 2.3509528e-38
-0.34852585 -0.24101144 1.0220001 2.3509528e-38
-0.40870199 -0.24117099 1.0500001 2.3509528e-38
-0.44491532 -0.31495073 1.0422695 2.3509528e-38
-0.51209128 -0.34692988 1.0380001 2.3509528e-38
-0.52314568 -0.35698232 1.036154 2.3509528e-38
-0.45526049 -0.23453093 1.0733998 2.3509528e-38
-0.29689133 -0.35508904 0.96210003 2.3509528e-38
-0.5154236 -0.34388426 1.0435501 2.3509528e-38
-0.28758347 -0.34240144 0.96200007 2.3509528e-38
-0.51309109 0.23433316 1.2848973 4.5182977e-39
-0.48433694 0.241846 1.2746233 3.8711122e-39
-0.52052957 0.27605525 1.3111292 4.3313771e-39
-0.52008682 0.32617646 1.332966 4.1469761e-39
-0.48021162 0.27725938 1.2918181 3.5008822e-39
-0.47745532 0.33086601 1.313445 4.4203105e-39
-0.52600962 0.36150178 1.3499563 4.7930755e-39
-0.46578681 0.36816713 1.3243335 6.9999707e-39
-0.42625284 0.26427403 1.2604192 5.0663988e-39
-0.3769927 0.27047634 1.2435622 5.6199397e-39
-0.43460414 0.31693187 1.2870455 5.8014359e-39
-0.38073966 0.32853386 1.2680767 8.1070483e-39
-0.42986032 0.36610466 1.3077736 8.4743777e-39
-0.37284061 0.36838996 1.2820187 9.5803637e-39
-0.33486137 0.25751531 1.2180551 7.5564109e-39
-0.33595207 0.31285989 1.2418845 7.0010665e-39
-0.28726205 0.26294687 1.1997746 7.6482464e-39
-0.28531295 0.30879456 1.2192786 6.9067059e-39
-0.29174295 0.37022454 1.2486048 9.5800036e-39
-0.26306903 0.28389493 1.1970003 2.3509528e-38
-0.2660988 0.25761098 1.189 2.3509528e-38
-0.28587839 0.25829494 1.197 2.3509528e-38
-0.30664223 0.24973956 1.202 2.3509528e-38
-0.32618576 0.24874978 1.21 2.3509528e-38
-0.35439122 0.24766973 1.2229999 2.3509528e-38
-0.37424871 0.24630953 1.232286 2.3509528e-38
-0.39369345 0.24416219 1.2360001 2.3509528e-38
-0.43819484 0.23679994 1.2540001 2.3509528e-38
-0.46025261 0.23398936 1.2590001 2.3509528e-38
-0.49433026 0.22806624 1.274 2.3509528e-38
-0.51468754 0.22749734 1.2846668 2.3509528e-38
-0.53121442 0.22992863 1.2920001 2.3509528e-38
-0.53142357 0.26284727 1.307 2.3509528e-38
-0.53273225 0.28587514 1.322 2.3509528e-38
-0.53416222 0.30470639 1.3280001 2.3509528e-38
-0.53171146 0.32370126 1.3330001 2.3509528e-38
-0.5333631 0.34532601 1.3490001 2.3509528e-38
-0.53731686 0.37052229 1.3590001 2.3509528e-38
-0.51629674 0.36507177 1.3476667 2.3509528e-38
-0.49557835 0.3654885 1.3376667 2.3509528e-38
-0.46568531 0.37504303 1.3279999 2.3509528e-38
-0.44503808 0.37781879 1.322 2.3509528e-38
-0.41981813 0.37841141 1.312 2.3509528e-38
-0.37641847 0.38698995 1.2919999 2.3509528e-38
-0.34867662 0.38804334 1.2830001 2.3509528e-38
-0.30916175 0.38783732 1.2640001 2.3509528e-38
-0.28443927 0.39468637 1.2575716 2.3509528e-38
-0.26597443 0.39810058 1.25 2.3509528e-38
-0.25708511 0.36250079 1.2270001 2.3509528e-38
-0.2647551 0.32400522 1.21775 2.3509528e-38
-0.26129314 0.29067549 1.197 2.3509528e-38
-0.7706911 0.27189603 1.4168184 5.4387953e-39
-0.75501835 0.24739163 1.4023573 4.5157418e-39
-0.75007182 0.26648399 1.4080724 4.8838166e-39
-0.78311241 0.29808518 1.4322057 7.0068412e-39
-0.75737906 0.30910537 1.4271462 6.1741785e-39
-0.79105192 0.32488081 1.4485556 6.5444142e-39
-0.75997961 0.33170134 1.4368334 6.9135596e-39
-0.72015887 0.26598737 1.3935754 4.9756409e-39
-0.70025116 0.28983101 1.3923092 5.4373309e-39
-0.73162353 0.28474909 1.4089556 5.3455066e-39
-0.71612895 0.31379029 1.4108899 6.2660098e-39
-0.72653335 0.33316505 1.4234577 5.8057687e-39
-0.69434917 0.32544574 1.4048573 6.6333574e-39
-0.68755037 0.32232752 1.3980001 2.3509528e-38
-0.68557787 0.33396792 1.4040002 2.3509528e-38
-0.79100847 0.30528495 1.4354001 2.3509528e-38
-0.77654254 0.28158972 1.4150001 2.3509528e-38
-0.80066669 0.31950292 1.452 2.3509528e-38
-0.80295271 0.32644716 1.4580001 2.3509528e-38
-0.77448636 0.29553595 1.4330001 2.3509528e-38
-0.766343 0.28562242 1.4227145 2.3509528e-38
-0.7541219 0.27490294 1.4125001 2.3509528e-38
-0.75233108 0.24459076 1.3980001 2.3509528e-38
-0.76238227 0.24346016 1.4040002 2.3509528e-38
-0.73561138 0.32493141 1.4210004 2.3509528e-38
-0.77717161 0.3341141 1.4449999 2.3509528e-38
-0.73411936 0.25530919 1.3952003 2.3509528e-38
-0.7379517 0.2768864 1.4100001 2.3509528e-38
-0.77371174 0.24477588 1.413 2.3509528e-38
-0.77358437 0.25487167 1.4150002 2.3509528e-38
-0.69458306 0.30389759 1.3944001 2.3509528e-38
-0.71505666 0.33635068 1.4210001 2.3509528e-38
-0.7160551 0.30602306 1.4100001 2.3509528e-38
-0.76757687 0.30778453 1.4330001 2.3509528e-38
-0.79018962 0.29773441 1.4330001 2.3509528e-38
-0.7047987 0.33443844 1.4129167 2.3509528e-38
-0.75364012 0.3147167 1.4270002 2.3509528e-38
-0.73872578 0.31392732 1.4210001 2.3509528e-38
-0.72792935 0.32679999 1.4210002 2.3509528e-38
-0.74647164 0.33466852 1.4330002 2.3509528e-38
-0.73452777 0.29544169 1.414286 2.3509528e-38
-0.69186795 0.29425669 1.3870001 2.3509528e-38
-0.71566182 0.28387627 1.3972501 2.3509528e-38
-0.75049239 0.29151359 1.4150001 2.3509528e-38
-0.73481148 0.27324647 1.4040002 2.3509528e-38
-0.7440697 0.28538072 1.4135716 2.3509528e-38
-0.72440815 0.25468147 1.3923531 2.3509528e-38
-0.71142554 0.30155581 1.404 2.3509528e-38
-0.7144658 0.31396943 1.4100001 2.3509528e-38
-0.76443619 0.31511274 1.4330003 2.3509528e-38
-0.79173958 0.32049617 1.4450001 2.3509528e-38
-0.77298856 0.30391911 1.4330003 2.3509528e-38
-0.70556587 0.32435262 1.41 2.3509528e-38
-0.74433446 0.31374305 1.4214617 2.3509528e-38
-0.72398007 0.28432405 1.4040002 2.3509528e-38
-0.69490772 0.28361723 1.3870001 2.3509528e-38
-0.75421393 0.28531116 1.4150003 2.3509528e-38
-0.76382601 0.25580063 1.4111111 2.3509528e-38
-0.73727316 0.26955396 1.404 2.3509528e-38
-0.71450263 0.29632473 1.4040002 2.3509528e-38
-0.7654354 0.2950581 1.4270002 2.3509528e-38
-0.79223669 0.31159627 1.439 2.3509528e-38
-0.7841388 0.32334644 1.4449999 2.3509528e-38
-0.70034796 0.32124925 1.404 2.3509528e-38
-0.70746124 0.31685364 1.4100002 2.3509528e-38
-0.73467731 0.28447327 1.4108334 2.3509528e-38
-0.72390926 0.2741214 1.3980001 2.3509528e-38
-0.76761812 0.24515985 1.4100002 2.3509528e-38
-0.69924337 0.28921583 1.3920001 2.3509528e-38
-0.75541359 0.29565766 1.4216669 2.3509528e-38
-0.79812086 0.31950292 1.452 2.3509528e-38
-0.69542462 0.32432634 1.404 2.3509528e-38
-0.72806287 0.28801131 1.4100001 2.3509528e-38
-0.69741291 0.29531744 1.3920001 2.3509528e-38
-0.71563047 0.2663784 1.3920001 2.3509528e-38
-0.50276691 -0.35415867 0.92206478 1.1896109e-38
-0.49220666 -0.32782453 0.9245708 1.2173408e-38
-0.51654077 -0.32755151 0.93752837 1.1711723e-38
-0.52384537 -0.30334848 0.9496271 1.1989386e-38
-0.5010379 -0.29944736 0.93976212 1.2080859e-38
-0.50959826 -0.27852264 0.9527722 1.2264886e-38
-0.52734673 -0.24028258 0.97311854 1.2172696e-38
-0.54444617 -0.22079833 0.98291725 1.1526966e-38
-0.54743218 -0.19891113 0.99337935 1.1618806e-38
-0.5026195 -0.2535693 0.95980942 1.244856e-38
-0.53220809 -0.27610871 0.96049225 1.1896116e-38
-0.52478063 -0.22027558 0.98007107 1.2450003e-38
-0.52258933 -0.19839893 0.98840564 1.2541476e-38
-0.4991523 -0.22607963 0.96859425 1.2540392e-38
-0.50194806 -0.1993358 0.980869 1.2632229e-38
-0.48077402 -0.31009451 0.9278205 1.2725867e-38
-0.48759052 -0.27729133 0.94115931 1.2541473e-38
-0.48175269 -0.20694599 0.97008908 1.32776e-38
-0.13851106 -0.29672876 0.78133279 1.6592299e-38
-0.11043847 -0.29497617 0.77030677 1.9636206e-38
-0.14371872 -0.27225602 0.79273599 1.5391939e-38
-0.13928477 -0.24074201 0.80163157 1.778832e-38
-0.14481068 -0.22107227 0.81110853 1.5666361e-38
-0.14250498 -0.19975771 0.81876051 1.7048944e-38
-0.11929548 -0.26671535 0.78382587 1.9819517e-38
-0.11060484 -0.24427417 0.7886669 2.0003187e-38
-0.11138945 -0.21734275 0.79917413 1.991099e-38
-0.12151768 -0.19927581 0.80903989 1.9910265e-38
-0.57165736 -0.13134462 1.0312949 7.3767196e-39
-0.57242721 -0.097886086 1.0447793 8.4809049e-39
-0.580199 -0.07268703 1.0606245 6.9128407e-39
-0.57484221 -0.037028551 1.0684545 7.9255465e-39
-0.53372449 -0.16951166 1.0033555 1.2356005e-38
-0.50546724 -0.17571533 0.99101728 1.2723705e-38
-0.49953559 -0.14372578 1.0015863 1.2815539e-38
-0.56296355 -0.17451333 1.0118303 1.1525889e-38
-0.55508924 -0.15700576 1.0158392 1.1618435e-38
-0.5429008 -0.13543856 1.0181971 1.2078695e-38
-0.52199924 -0.12666044 1.0179281 1.2816263e-38
-0.54774833 -0.10552831 1.0312775 1.1893941e-38
-0.54775465 -0.077399492 1.043344 1.1801745e-38
-0.55028445 -0.044154063 1.0573461 1.170919e-38
-0.52306843 -0.10089725 1.0271255 1.2631153e-38
-0.52138007 -0.077690735 1.0366274 1.2815544e-38
-0.50317538 -0.11412957 1.0145051 1.2631505e-38
-0.49487135 -0.089440212 1.0199823 1.2722619e-38
-0.5035758 -0.062762097 1.0340338 1.2538232e-38
-0.52517331 -0.038486294 1.0530525 1.2262362e-38
-0.49914938 -0.043489311 1.0398723 1.244568e-38
-0.48016948 -0.17991313 0.98063296 1.327688e-38
-0.4773559 -0.10380143 1.0099534 1.272335e-38
-0.46879601 -0.047994874 1.033 9.407571e-39
-0.5636403 -0.0041310615 1.0801525 1.0971251e-38
-0.54372561 -0.022493076 1.0640984 1.1708824e-38
-0.54157829 0.0025539293 1.0740528 1.1616274e-38
-0.54113072 0.025168285 1.0826362 1.1708469e-38
-0.52323508 -0.010745738 1.0645454 1.2169811e-38
-0.50332534 -0.021834774 1.0507349 1.235312e-38
-0.49966955 0.002375436 1.0586483 1.2261277e-38
-0.5070045 0.018649578 1.0678966 1.207689e-38
-0.50794852 0.045357864 1.0789604 1.1892859e-38
-0.48676485 -0.026539272 1.0407768 1.2629704e-38
-0.48469779 -0.0015147537 1.0499334 1.2445666e-38
-0.47922283 0.025566656 1.0616109 1.1892496e-38
-0.48953542 0.070647538 1.080156 1.1892495e-38
-0.28398505 -0.13621227 0.94417393 1.8896815e-38
-0.19757155 -0.12568516 0.91125935 1.7420972e-38
-0.18244061 -0.11917578 0.90765643 3.8703976e-39
-0.14547417 -0.17716692 0.82931137 1.5848213e-38
-0.13927697 -0.14884499 0.83856064 1.8433319e-38
-0.12189773 -0.17612749 0.81824166 1.9909905e-38
-0.10527637 -0.18628004 0.80939811 2.0094655e-38
-0.13007554 -0.12675799 0.84313571 1.9909898e-38
-0.10900943 -0.15109026 0.82577407 2.0186489e-38
-0.11360347 -0.11187731 0.84244752 2.0186126e-38
-0.1466397 -0.097687334 0.86387539 8.570567e-39
-0.16457275 -0.11700192 0.89975607 5.2536922e-39
-0.14182238 -0.070800923 0.87227601 1.3915742e-38
-0.14173695 -0.040653747 0.88444275 1.6402839e-38
-0.12379927 -0.085482553 0.85793602 1.9909179e-38
-0.10485049 -0.081402689 0.85153931 2.0278313e-38
-0.11906293 -0.06087894 0.86564541 1.9817337e-38
-0.12300062 -0.036399081 0.8777855 1.9540388e-38
-0.10753017 -0.041056249 0.86906648 1.9816977e-38
-0.23566401 -0.13334981 0.92483538 1.5669617e-38
-0.14290445 -0.022532176 0.89158434 1.5940413e-38
-0.14157598 0.0023793851 0.90173036 1.6032965e-38
-0.1476045 0.023943353 0.91538173 1.4370192e-38
-0.10631712 -0.019634293 0.87640041 1.9540744e-38
-0.12183943 -0.0057179751 0.89012253 1.9171609e-38
-0.12181287 0.022366229 0.90066808 1.8802827e-38
-0.13073598 0.041499276 0.91222239 1.7233687e-38
-0.10465188 0.014667087 0.89041674 1.9171244e-38
-0.10595848 0.04161438 0.90135401 1.8710989e-38
-0.12994815 0.06178626 0.92055029 1.69571e-38
-0.11079929 0.086752743 0.92142069 1.788087e-38
-0.14272739 0.084817067 0.93436146 1.5017361e-38
-0.13883378 0.10922195 0.94194192 1.566454e-38
-0.10989735 0.11621328 0.9333725 1.7327702e-38
-0.41074461 0.15016466 1.0792664 1.373388e-38
-0.3818877 0.15675259 1.0676497 1.3641685e-38
-0.38677591 0.19004089 1.0830624 9.7687487e-39
-0.35503489 0.15421432 1.0566194 1.4378164e-38
-0.35831693 0.18584807 1.0696243 1.2904483e-38
-0.33813375 0.18176785 1.0591944 1.3456577e-38
-0.35372558 0.20342278 1.0736862 7.4638551e-39
-0.32451433 0.15811488 1.045169 1.5391602e-38
-0.30786872 0.16460887 1.0404335 1.4746588e-38
-0.31751934 0.19895312 1.0555357 1.1705573e-38
-0.29845962 0.19374812 1.0445549 1.3548768e-38
-0.28098935 0.1605179 1.0259223 1.6036603e-38
-0.28203771 0.1814025 1.0321668 1.4102298e-38
-0.25992927 0.17029279 1.0197992 1.5023894e-38
-0.26236942 0.19442484 1.0281156 1.4193417e-38
-0.27640441 0.21159451 1.0419499 8.9386209e-39
-0.20766763 0.16974804 1.0001421 1.6590492e-38
-0.20876758 0.19188432 1.0065442 1.4930981e-38
-0.17917718 0.19434911 0.9935804 1.5207569e-38
-0.2369567 0.17475069 1.0129753 1.5483793e-38
-0.23914348 0.19804204 1.0213848 1.4470363e-38
-0.18141916 0.22187619 1.0052184 8.6591557e-39
-0.24141228 0.21780427 1.028864 9.0315312e-39
-0.2139699 0.21509072 1.0160681 1.0135005e-38
-0.14168489 0.14170876 0.95653164 1.8248919e-38
-0.15843026 0.18342583 0.98250782 1.5852932e-38
-0.13918237 0.1715083 0.96892017 1.7235495e-38
-0.13904919 0.20476624 0.98150975 1.5208289e-38
-0.11957162 0.1389575 0.94784611 1.6775248e-38
-0.11238395 0.15743072 0.95234799 1.6590498e-38
-0.11111509 0.18577144 0.96261674 1.5945493e-38
-0.17066786 0.21786301 0.99842358 1.2071837e-38
-0.1395116 0.22759441 0.99034923 1.3270392e-38
-0.14913683 0.24308044 1.0030751 4.1451726e-39
-0.11536501 0.23360114 0.98338234 1.5023542e-38
-0.10485239 0.21296751 0.97024071 1.5393042e-38
-0.12975979 0.25369155 0.99739861 1.4378173e-38
-0.11355026 0.26676309 0.9959178 1.4285981e-38
-0.14351083 0.27771604 1.0127276 7.2801855e-39
-0.11039605 0.29064351 1.0039867 1.3733528e-38
-0.13853876 0.31337804 1.024325 1.0415198e-38
-0.13694398 0.34628269 1.0383648 1.2259114e-38
-0.1174354 0.31178969 1.0160906 1.3273269e-38
-0.11003995 0.32872927 1.0185488 1.2996327e-38
-0.1084228 0.34925812 1.0257006 1.2627902e-38
-0.14251332 0.37620279 1.0511184 1.3274341e-38
-0.13293093 0.40869564 1.0609446 1.2076167e-38
-0.11983246 0.37167552 1.0414761 1.198397e-38
-0.11019053 0.3887139 1.0432587 1.1799227e-38
-0.11149495 0.41014406 1.0528753 1.1430805e-38
-0.57536262 0.021811163 1.0956349 8.9404117e-39
-0.57827699 0.057534527 1.1113727 9.308111e-39
-0.58480471 0.092125013 1.1303548 1.1892481e-38
-0.57433128 0.10777938 1.1274489 1.1062723e-38
-0.56232035 0.08146473 1.1129211 1.1063097e-38
-0.54777378 0.053141374 1.0960126 1.1339683e-38
-0.53844577 0.078638107 1.1019279 1.134004e-38
-0.5426296 0.10154618 1.1115723 1.1247488e-38
-0.55265182 0.12013502 1.121219 7.7444259e-39
-0.5124175 0.074769557 1.0916193 1.1800302e-38
-0.52231306 0.10641064 1.1090282 1.1708462e-38
-0.50454324 0.098472446 1.0979776 1.1707741e-38
-0.5001139 0.12207832 1.1071619 7.929885e-39
-0.47700852 0.098669849 1.0917534 1.1984693e-38
-0.47866377 0.11719258 1.0982571 1.2168723e-38
-0.60401094 0.13043645 1.1538432 9.7738046e-39
-0.57664013 0.1320169 1.1396455 1.0511012e-38
-0.58035284 0.16204712 1.1539291 7.3752734e-39
-0.63212991 0.13023186 1.1639013 9.6805257e-39
-0.64275295 0.15598302 1.1805413 8.1132e-39
-0.61337453 0.15544456 1.1678078 9.4050192e-39
-0.62506783 0.16900435 1.1737446 2.9491685e-39
-0.57700223 0.1936999 1.1637392 5.5281182e-39
-0.57990783 0.27372161 1.1904078 6.4500493e-39
-0.58665442 0.28674513 1.2062223 6.632993e-39
-0.57236367 0.30667496 1.2073889 9.1269764e-39
-0.57203567 0.32926449 1.2137661 9.4957589e-39
-0.57083023 0.34921837 1.2206118 9.5883203e-39
-0.57778513 0.39963734 1.2477009 5.0707372e-39
-0.57628417 0.43207175 1.2593707 6.8228143e-39
-0.54763442 0.13838977 1.1252731 1.0140059e-38
-0.54830474 0.16332468 1.1397283 9.9571126e-39
-0.5563193 0.18199728 1.1488192 9.5879658e-39
-0.54853618 0.19959684 1.155185 8.2050299e-39
-0.50896406 0.13948748 1.117559 1.0325892e-38
-0.52418488 0.15870711 1.1300526 8.205397e-39
-0.5022378 0.15958585 1.1229186 1.0325531e-38
-0.52253258 0.17909914 1.1392077 8.5738222e-39
-0.52007359 0.20557472 1.1477724 7.6522219e-39
-0.49752375 0.17871749 1.1284027 1.1154207e-38
-0.5304538 0.23020019 1.1605872 9.3113831e-39
-0.50195163 0.20828673 1.1419936 8.1131944e-39
-0.56142777 0.22690402 1.1694236 7.8344425e-39
-0.55552703 0.27215859 1.1859671 8.8504007e-39
-0.4993802 0.23699145 1.1546338 1.0232253e-38
-0.52414107 0.26144695 1.1718222 9.5883231e-39
-0.52788806 0.27966785 1.1809608 1.0140425e-38
-0.50006217 0.25812823 1.1624002 1.0416646e-38
-0.50272357 0.27831697 1.1693621 1.0140419e-38
-0.4813275 0.14543884 1.1101112 1.1799579e-38
-0.46527398 0.12939319 1.0988312 1.2260194e-38
-0.46398732 0.15129079 1.1030444 1.1983972e-38
-0.46941125 0.17640013 1.1159074 1.1338961e-38
-0.47642177 0.19884382 1.12833 1.124713e-38
-0.44014162 0.15481862 1.0940765 1.2720812e-38
-0.43868026 0.1833723 1.1035641 9.8627492e-39
-0.41426817 0.1845575 1.0927727 1.0415559e-38
-0.48155013 0.22026245 1.138659 1.0693592e-38
-0.4851113 0.25243783 1.1531445 1.0785066e-38
-0.47833294 0.27712098 1.1641353 1.0140066e-38
-0.54458177 0.29717851 1.1920751 9.4957687e-39
-0.55289155 0.31749204 1.2022226 9.219186e-39
-0.54648578 0.33892038 1.2092923 9.2188287e-39
-0.54478902 0.36124647 1.21772 8.9429607e-39
-0.52106035 0.30330408 1.1885892 9.8641883e-39
-0.53411603 0.31527719 1.1956369 9.6801586e-39
-0.5016613 0.29971787 1.1811917 9.8638324e-39
-0.52446061 0.32874566 1.2010001 9.6805243e-39
-0.49886179 0.32585514 1.1886065 9.68016e-39
-0.49889874 0.34775475 1.1970494 9.402857e-39
-0.52148938 0.35111678 1.2073144 9.49541e-39
-0.56841576 0.37322855 1.2303363 9.0351465e-39
-0.54652339 0.39211261 1.2292533 8.7585638e-39
-0.54849488 0.41880953 1.2406616 8.4819825e-39
-0.51133108 0.37006989 1.212478 9.3113775e-39
-0.50619161 0.38899145 1.2168339 9.0340773e-39
-0.51803058 0.4148517 1.231719 8.7585652e-39
-0.51518327 0.44168153 1.2408853 8.6663738e-39
-0.4952518 0.41041717 1.2201716 8.942602e-39
-0.48584691 0.304315 1.1741394 1.0140415e-38
-0.47269288 0.35167146 1.1929203 9.9563965e-39
-0.47897217 0.36891931 1.1990635 9.9556749e-39
-0.48147562 0.38661399 1.2075685 9.5872483e-39
-0.47096196 0.43520603 1.2195201 8.3901484e-39
-0.54632533 0.43994543 1.250344 8.3897855e-39
-0.46277478 0.4278484 1.245 5.8072022e-39
-0.57500935 0.50042975 1.2867048 7.6536582e-39
-0.48730904 0.44951355 1.2325933 8.7582093e-39
-0.49559864 0.47220024 1.2445563 8.5738194e-39
-0.5624308 0.46772155 1.2653993 7.561101e-39
-0.53292674 0.46313044 1.2542419 8.3897855e-39
-0.54587531 0.49171442 1.2708585 8.1131986e-39
-0.52268434 0.49284655 1.2636065 8.4816182e-39
-0.50042731 0.49388561 1.2548131 8.2053942e-39
-0.65275794 0.15707217 1.1834002 2.3509528e-38
-0.63251585 0.17025305 1.177 2.3509528e-38
-0.59536976 0.18469876 1.177 2.3509528e-38
-0.58385122 0.26505226 1.1842307 2.3509528e-38
-0.59296858 0.2832247 1.21 2.3509528e-38
-0.58002895 0.31396064 1.2140001 2.3509528e-38
-0.57549655 0.33358613 1.2179285 2.3509528e-38
-0.57458836 0.36829817 1.2320001 2.3509528e-38
-0.58298337 0.39669168 1.25 2.3509528e-38
-0.58729655 0.4177562 1.2640001 2.3509528e-38
-0.58813024 0.44639868 1.273 2.3509528e-38
-0.58150262 0.48927206 1.2830001 2.3509528e-38
-0.59011412 0.50336623 1.302 2.3509528e-38
-0.57538795 0.51422465 1.2919999 2.3509528e-38
-0.5619387 0.51225626 1.2880001 2.3509528e-38
-0.53539932 0.50498849 1.273 2.3509528e-38
-0.51652098 0.50351423 1.2662858 2.3509528e-38
-0.49628362 0.50179523 1.2580001 2.3509528e-38
-0.48369429 0.48405811 1.245 2.3509528e-38
-0.48502851 0.46471184 1.2360001 2.3509528e-38
-0.46596217 0.44580552 1.223 2.3509528e-38
-0.45870179 0.43209496 1.2140001 2.3509528e-38
-0.47116712 0.37042761 1.197 2.3509528e-38
-0.47482193 0.3482725 1.1930001 2.3509528e-38
-0.48341548 0.31109875 1.177 2.3509528e-38
-0.46797955 0.27731773 1.1630001 2.3509528e-38
-0.48431948 0.24456568 1.1485556 2.3509528e-38
-0.46701011 0.20792253 1.1317143 2.3509528e-38
-0.43480474 0.19351979 1.1049999 2.3509528e-38
-0.41438806 0.19405191 1.0951251 2.3509528e-38
-0.38891563 0.19971344 1.09 2.3509528e-38
-0.36309779 0.20545559 1.08 2.3509528e-38
-0.34593424 0.20388791 1.0706668 2.3509528e-38
-0.33497548 0.20427972 1.0648332 2.3509528e-38
-0.28774479 0.21304053 1.052 2.3509528e-38
-0.27234399 0.21254532 1.0380001 2.3509528e-38
-0.24313386 0.22144161 1.031 2.3509528e-38
-0.21482229 0.22137275 1.0186667 2.3509528e-38
-0.19590214 0.22113699 1.0100001 2.3509528e-38
-0.18505183 0.22449483 1.0066539 2.3509528e-38
-0.15258968 0.25470966 1.0100001 2.3509528e-38
-0.15112273 0.27225527 1.016 2.3509528e-38
-0.15039282 0.30619097 1.0272501 2.3509528e-38
-0.15144855 0.34420124 1.0470001 2.3509528e-38
-0.1540163 0.36152154 1.052 2.3509528e-38
-0.14758444 0.39375561 1.0600002 2.3509528e-38
-0.14258108 0.41930088 1.0700001 2.3509528e-38
-0.1368916 0.42360231 1.0703334 2.3509528e-38
-0.12492218 0.42137614 1.0634 2.3509528e-38
-0.10482639 0.41444907 1.0508695 2.3509528e-38
-0.10282774 0.38492155 1.0380001 2.3509528e-38
-0.10235209 0.36215904 1.028 2.3509528e-38
-0.1051946 0.32503131 1.0153795 2.3509528e-38
-0.10319725 0.30253091 1.0061001 2.3509528e-38
-0.10369929 0.28413278 0.99749982 2.3509528e-38
-0.10178325 0.24214861 0.97800016 2.3509528e-38
-0.10004608 0.19084419 0.95900005 2.3509528e-38
-0.10292885 0.15389809 0.9464761 2.3509528e-38
-0.10346379 0.13343535 0.93664998 2.3509528e-38
-0.10180467 0.091342524 0.91800004 2.3509528e-38
-0.10477062 0.075192437 0.91437513 2.3509528e-38
-0.10488255 0.054454081 0.90654558 2.3509528e-38
-0.1041835 0.032760374 0.89774996 2.3509528e-38
-0.10302295 0.012380581 0.88877779 2.3509528e-38
-0.10533957 -0.0045458484 0.88472974 2.3509528e-38
-0.10254142 -0.029101653 0.86900008 2.3509528e-38
-0.10484333 -0.044970524 0.86736584 2.3509528e-38
-0.10334793 -0.065842599 0.85774994 2.3509528e-38
-0.1023021 -0.085816979 0.8481667 2.3509528e-38
-0.10467319 -0.1249629 0.83420813 2.3509528e-38
-0.10485927 -0.14484365 0.82614821 2.3509528e-38
-0.10426242 -0.16664332 0.81712133 2.3509528e-38
-0.10207537 -0.18580663 0.80882615 2.3509528e-38
-0.10375345 -0.21608315 0.79617655 2.3509528e-38
-0.10386258 -0.23611753 0.78797299 2.3509528e-38
-0.10511108 -0.25483596 0.78326648 2.3509528e-38
-0.1045893 -0.27518883 0.7746895 2.3509528e-38
-0.10380547 -0.29542816 0.76793653 2.3509528e-38
-0.11414166 -0.30252004 0.76812506 2.3509528e-38
-0.14118366 -0.30623898 0.77800006 2.3509528e-38
-0.15214351 -0.30455831 0.78669995 2.3509528e-38
-0.15174016 -0.28496307 0.79373336 2.3509528e-38
-0.1512634 -0.26760688 0.79660004 2.3509528e-38
-0.15166838 -0.23371723 0.81223083 2.3509528e-38
-0.15120968 -0.2151216 0.81616682 2.3509528e-38
-0.15183714 -0.19521481 0.82474995 2.3509528e-38
