# .PCD v0.7 - Point Cloud Data file format
VERSION 0.7
FIELDS x y z rgb
SIZE 4 4 4 4
TYPE F F F F
COUNT 1 1 1 1
WIDTH 1065
HEIGHT 1
VIEWPOINT 0 0 0 1 0 0 0
POINTS 1065
DATA ascii
-0.90273964 0.095468126 1.6550001 1.1523714e-38
-0.89519501 0.094307415 1.655 1.0047156e-38
-0.88939154 0.094307423 1.6550001 9.4014235e-39
-0.83715969 0.097209185 1.6550001 7.6453653e-39
-0.90825295 0.10011095 1.6550001 1.1800299e-38
-0.89374417 0.10301271 1.6550001 9.3077803e-39
-0.88939148 0.10156183 1.6550001 8.9393537e-39
-0.86690277 0.10663992 1.6550001 6.8141515e-39
-0.8748827 0.11558704 1.6550001 7.7328456e-39
-0.86907911 0.11171801 1.6550001 7.550255e-39
-0.88358796 0.12622684 1.6550001 8.0998204e-39
-0.88600612 0.13541578 1.6550001 8.0994631e-39
-0.70851469 0.1339649 1.6550001 2.5746225e-39
-0.81788003 -0.59190607 1.6630001 1.1800671e-38
-0.81788003 -0.58753234 1.6630001 1.2442426e-38
-0.5452534 -0.50151646 1.6630001 9.7723738e-39
-0.53504807 -0.50005853 1.6630001 9.7705746e-39
-0.52513438 -0.50180805 1.6630001 7.7419162e-39
-0.53504807 -0.49714276 1.6630001 9.6801754e-39
-0.7345717 -0.055191804 1.6630002 4.4192245e-39
-0.49131116 -0.051026382 1.6630001 8.2651947e-40
-0.48645157 -0.051998317 1.6630001 2.0210998e-39
-0.77122736 -0.048110589 1.6630001 1.2533178e-38
-0.76714528 -0.04461164 1.6630001 9.5800092e-39
-0.75081676 -0.043736897 1.6630001 3.4980039e-39
-0.74498522 -0.043736901 1.6630001 4.0511791e-39
-0.73478001 -0.045194801 1.6630001 3.4990787e-39
-0.49422696 -0.045194797 1.6630001 1.0101905e-39
-0.48839539 -0.048110589 1.6630001 1.2856969e-39
-0.76481265 -0.038196892 1.6630001 8.1970747e-39
-0.75581539 -0.038113583 1.6630002 5.3401074e-39
-0.74498522 -0.039363209 1.6630001 3.4998046e-39
-0.73565477 -0.035572674 1.6630001 3.2232121e-39
-0.76247996 -0.01312107 1.6630001 5.7996324e-39
-0.5335902 0.01312107 1.6630001 6.9949246e-39
-0.52513444 0.015453704 1.6630001 5.0548983e-39
-0.51463759 0.018952657 1.6630001 4.9634216e-39
-0.82137901 0.056274813 1.6630001 8.1963573e-39
-0.89174688 0.067549214 1.6630001 7.9262794e-39
-0.88552636 0.067354821 1.6630001 1.0785073e-38
-0.87911171 0.068521142 1.6630001 1.2168734e-38
-0.82298267 0.0663343 1.6630001 8.1956342e-39
-0.89285761 0.074769281 1.6630002 9.2159434e-39
-0.88494325 0.074352734 1.6630001 1.1891786e-38
-0.87911171 0.074352726 1.6630001 1.2537517e-38
-0.83245897 0.077268526 1.6630001 8.1949364e-39
-0.82662743 0.074352734 1.6630001 8.288197e-39
-0.90389597 0.088931695 1.6630001 1.0784359e-38
-0.89485699 0.084849581 1.6630002 9.3092195e-39
-0.88494325 0.08455801 1.6630001 1.179923e-38
-0.87911171 0.08310011 1.6630001 1.2076179e-38
-0.83245897 0.08164221 1.6630001 8.103091e-39
-0.82954317 0.080184318 1.6630001 8.1956454e-39
-0.9129349 0.094180129 1.6630001 1.2168371e-38
-0.90826964 0.094763286 1.6630001 1.1616633e-38
-0.89077491 0.094763279 1.6630001 1.0231899e-38
-0.88494331 0.094763286 1.6630001 9.9560378e-39
-0.87473798 0.091847487 1.6630001 1.0324485e-38
-0.90243804 0.10934225 1.6630001 6.5419086e-39
-0.89427388 0.1058433 1.6630001 7.8319356e-39
-0.88457876 0.10351067 1.6630001 7.9273696e-39
-0.87376612 0.10448259 1.6630001 7.1861934e-39
-0.86599064 0.10351066 1.6630001 7.4591916e-39
-0.88445735 0.11517383 1.6630001 6.626868e-39
-0.87765384 0.11225804 1.6630001 7.2725947e-39
-0.89252436 0.12625386 1.6630001 7.7303274e-39
-0.88785905 0.12246332 1.6630001 7.7296156e-39
-0.8954401 0.13500123 1.6630001 7.7324798e-39
-0.70416415 0.13558438 1.6630001 2.5749812e-39
-0.90243804 0.14433177 1.6630001 7.3619065e-39
-0.89952224 0.14141597 1.6630001 7.3619065e-39
0.53601998 0.42521986 1.6630001 1.4008332e-38
-0.7974695 0.64876401 1.6630001 1.8367099e-40
-0.85578531 0.65459561 1.6630001 8.5697599e-39
-0.82474434 -0.59182364 1.6710001 1.2075091e-38
-0.82181448 -0.58449912 1.6710001 1.2073632e-38
-0.81595486 -0.58547568 1.6710002 1.1428629e-38
-0.55813068 -0.5112536 1.6710001 9.5872693e-39
-0.52297294 -0.50246418 1.6710002 6.9114352e-39
-0.5317623 -0.49806941 1.6710001 9.7734528e-39
-0.52260667 -0.49697074 1.6710002 9.0355178e-39
-0.66946387 -0.19776285 1.6710001 4.1354672e-39
-0.73391992 -0.064456038 1.6710001 5.983309e-39
-0.73391992 -0.051271848 1.6710001 4.0522413e-39
-0.48342031 -0.052736759 1.6710001 3.0352349e-39
-0.77493739 -0.043947302 1.6710001 1.2531025e-38
-0.73391992 -0.042482391 1.6710001 2.6700453e-39
-0.49513957 -0.045412209 1.6710001 1.0101905e-39
-0.48781502 -0.04834203 1.6710001 1.102026e-39
-0.77347249 -0.036622752 1.6710001 1.0409068e-38
-0.76468301 -0.03369293 1.6710001 6.9996204e-39
-0.75384271 -0.034864858 1.6710001 3.5909114e-39
-0.74600542 -0.034425382 1.6710002 3.5916471e-39
-0.73391992 -0.038087659 1.6710001 2.6689691e-39
-0.50539392 -0.039552569 1.6710001 5.5101298e-40
-0.53469217 0.01611401 1.6710002 5.9793518e-39
-0.52736759 0.019043829 1.6710001 5.0574095e-39
-0.52297294 0.021973651 1.6710002 5.0577682e-39
-0.5141834 0.021973651 1.6710002 5.1463751e-39
-0.50539398 0.021973651 1.6710002 1.013321e-38
-0.82376778 0.037599355 1.6710002 8.5662118e-39
-0.82511055 0.045045983 1.6710002 8.5662202e-39
-0.83060396 0.054201674 1.6710002 8.4733113e-39
-0.82767415 0.05420167 1.6710002 8.2892788e-39
-0.90189624 0.067874163 1.6710002 8.7564002e-39
-0.89506 0.063967735 1.6710002 7.8344537e-39
-0.88480568 0.064944342 1.6710002 1.1706321e-38
-0.83133638 0.064456038 1.6710001 8.1974433e-39
-0.82767415 0.064456038 1.6710001 8.2892746e-39
-0.90238458 0.074710406 1.6710001 9.4007018e-39
-0.88041091 0.074710414 1.6710002 1.2352765e-38
-0.8774811 0.077640228 1.6710001 1.2353496e-38
-0.83499873 0.073245496 1.6710001 8.0112682e-39
-0.90531439 0.083499871 1.6710001 9.6780048e-39
-0.88099688 0.085843734 1.6710001 1.170776e-38
-0.87622547 0.085592605 1.6710002 1.1707044e-38
-0.83939344 0.087894604 1.6710001 8.0101709e-39
-0.88216877 0.095805116 1.6710001 9.5872693e-39
-0.87503958 0.096195757 1.6710002 9.4025095e-39
-0.89447403 0.10869633 1.6710001 7.0940118e-39
-0.88334072 0.10510729 1.6710002 7.2812729e-39
-0.87162143 0.10107879 1.6710001 8.2950731e-39
-0.86576188 0.10303201 1.6710002 7.9212333e-39
-0.85843724 0.10400861 1.6710001 7.7364469e-39
-0.90238452 0.11279807 1.6710001 5.9854922e-39
-0.89542627 0.11536167 1.6710002 6.1666227e-39
-0.90091962 0.12744717 1.6710001 7.3637001e-39
-0.89798987 0.12451735 1.6710002 7.0864084e-39
-0.69729716 0.13623662 1.6710001 2.5742638e-39
-0.7617532 0.28858727 1.6710001 0
-0.7617532 0.29298198 1.6710001 4.5917748e-40
-0.85111272 0.63284111 1.6710001 7.554215e-39
-0.84525305 0.63723582 1.6710001 1.1963726e-39
-0.84378815 0.64016569 1.6710001 1.0127016e-39
-0.85510796 0.66333789 1.6710002 4.9756241e-39
-0.84671795 0.66653407 1.6710001 2.0268409e-39
-0.84438145 -0.59162939 1.6880001 1.1892494e-38
-0.83490086 -0.59289312 1.6832001 1.2444933e-38
-0.82918638 -0.59501123 1.6800001 1.2629336e-38
-0.85326034 -0.58334243 1.6880001 1.2166911e-38
-0.84534341 -0.58489615 1.688 1.2719013e-38
-0.83410561 -0.58466941 1.6816002 1.3271807e-38
-0.8272227 -0.5847016 1.6800002 1.152154e-38
-0.81740397 -0.5876472 1.6800001 1.0323377e-38
-0.86273116 -0.57268775 1.6880001 1.2535328e-38
-0.85388196 -0.57504904 1.6849233 1.290267e-38
-0.84581912 -0.57564735 1.6880001 1.1613024e-38
-0.83566666 -0.57763219 1.6800002 1.1247117e-38
-0.82918638 -0.57881039 1.6800001 9.6801278e-39
-0.86421096 -0.56972814 1.6880001 1.3364008e-38
-0.85533214 -0.56972814 1.6880001 1.2350209e-38
-0.5344637 -0.49786529 1.6832001 9.4972261e-39
-0.5266313 -0.49422961 1.6800002 9.3131893e-39
-0.51547998 -0.4904424 1.6800001 9.6812474e-39
-0.51192707 -0.48652196 1.6848 9.4968645e-39
-0.73250759 -0.20421425 1.6880001 2.5753399e-39
-0.72658843 -0.20421425 1.6880001 2.6675342e-39
-0.68219393 -0.20273443 1.6880001 4.2294551e-39
-0.6741426 -0.20209388 1.6826668 3.4926187e-39
-0.66570556 -0.2017736 1.6800001 2.6632294e-39
-0.68219393 -0.1997748 1.6880001 3.9528724e-39
-0.67386073 -0.19780967 1.6864001 3.7692014e-39
-0.66553587 -0.19821224 1.6848001 3.4000658e-39
-0.78562659 -0.11472831 1.6863998 1.1888176e-38
-0.77986163 -0.11246581 1.6880001 8.8431532e-39
-0.78445715 -0.10469329 1.6820002 1.2626454e-38
-0.77542222 -0.10506676 1.688 8.750603e-39
-0.76506352 -0.10358693 1.6880001 7.9176152e-39
-0.7846058 -0.096083939 1.6814548 1.290305e-38
-0.71573639 -0.074483939 1.6880001 7.7335616e-39
-0.73371971 -0.06495516 1.684 5.4323003e-39
-0.7251085 -0.065111786 1.6879998 4.3277562e-39
-0.71474981 -0.065111786 1.688 4.8794908e-39
-0.73665941 -0.055351563 1.6862222 3.6838231e-39
-0.7236287 -0.057712719 1.6880001 9.1835496e-41
-0.71474981 -0.057712719 1.6880001 0
-0.48160559 -0.053020798 1.6800001 3.4944124e-39
-0.47571439 -0.053020801 1.6800002 3.7699189e-39
-0.73842686 -0.045874216 1.6880001 2.4860156e-39
-0.50165671 -0.042914588 1.6880001 9.1835496e-41
-0.49420854 -0.044011474 1.6848001 7.3468397e-40
-0.48521161 -0.047731575 1.684 1.3775324e-39
-0.47649989 -0.04883384 1.6880001 1.5612034e-39
-0.76438326 -0.030928802 1.6800001 4.8791405e-39
-0.75554645 -0.030928802 1.6800001 3.8671381e-39
-0.51349521 -0.038475148 1.6880001 6.4285548e-40
-0.5051704 -0.0397656 1.6800001 1.8367099e-40
-0.76438314 -0.025037602 1.6800002 4.5103538e-39
-0.75520492 -0.024644313 1.6843079 3.4976522e-39
-0.74586505 -0.026387166 1.6857144 2.3019929e-39
-0.76438326 -0.0176736 1.6800002 2.9477042e-39
-0.75477028 -0.018685857 1.6826668 4.3245262e-39
-0.83313489 0.01825103 1.6880001 8.9342824e-39
-0.82328624 0.016650654 1.6834289 8.7495339e-39
-0.81574649 0.013271565 1.6826668 8.381466e-39
-0.54051757 0.0191464 1.6800001 6.2570162e-39
-0.5360992 0.0191464 1.6800001 4.3209318e-39
-0.84201378 0.028116453 1.6880001 8.8449805e-39
-0.8355931 0.025097214 1.6840003 8.8435372e-39
-0.82660902 0.024669399 1.6800002 8.5647769e-39
-0.54309148 0.0221972 1.6880001 4.0436317e-39
-0.53378308 0.022858206 1.682 4.68935e-39
-0.52431679 0.0250376 1.6800001 4.9666502e-39
-0.51548004 0.0250376 1.6800001 5.5227092e-39
-0.50517046 0.0250376 1.6800001 8.5655364e-39
-0.84201378 0.034035709 1.6880001 9.3041552e-39
-0.83495134 0.03476008 1.6822859 8.7509744e-39
-0.82820451 0.031910665 1.6800001 8.3825478e-39
-0.84300035 0.045874216 1.6880001 8.9375264e-39
-0.83581394 0.046393201 1.6800001 8.5673062e-39
-0.90268612 0.057712719 1.6880001 1.1611958e-38
-0.89528704 0.057712719 1.6880001 1.0691097e-38
-0.88936782 0.057712719 1.6880001 1.0138627e-38
-0.85089266 0.057712719 1.6880001 1.0965832e-38
-0.84471214 0.055424619 1.6860001 9.305953e-39
-0.83802319 0.054493599 1.6800001 8.9368104e-39
-0.90611041 0.063402288 1.682 9.400692e-39
-0.89546245 0.060384799 1.6800001 1.0967665e-38
-0.88422459 0.065105416 1.6843637 1.106095e-38
-0.87584496 0.06850975 1.6866667 1.1522293e-38
-0.86569083 0.069551229 1.6880001 1.1060957e-38
-0.85385227 0.065111794 1.688 1.0045334e-38
-0.84344625 0.064880349 1.6820002 9.028297e-39
-0.83802319 0.063330397 1.6800001 8.3825618e-39
-0.88163447 0.073263615 1.6826668 1.2076539e-38
-0.87463838 0.075448945 1.6828572 1.2076542e-38
-0.86569077 0.075470485 1.688 1.1523729e-38
-0.85573572 0.075201415 1.688 1.0231186e-38
-0.84465075 0.075849198 1.6800001 8.5694684e-39
-0.87382364 0.085082531 1.6800002 1.1799592e-38
-0.8662411 0.084679522 1.6855385 1.1432247e-38
-0.85573572 0.084618412 1.688 1.0599232e-38
-0.84538722 0.083949596 1.6800001 8.8428071e-39
-0.87300217 0.095363796 1.6800002 9.6783761e-39
-0.86604851 0.094912842 1.6864001 9.4943506e-39
-0.85779852 0.094214775 1.688 9.3074174e-39
-0.84833276 0.094259195 1.6800001 7.8293838e-39
-0.87042481 0.1016232 1.6800001 8.5687663e-39
-0.86408299 0.10174417 1.682 8.4758547e-39
-0.85840863 0.10292768 1.6853335 8.2892746e-39
-0.74352413 0.28328678 1.6848001 0
-0.7620396 0.29528356 1.6813335 1.6584227e-39
-0.75526112 0.29748455 1.6826667 1.9346439e-39
-0.74316549 0.29795444 1.6853335 3.6985451e-40
-0.73369145 0.29389092 1.6880001 0
-0.74286628 0.3004021 1.6880001 4.627648e-40
-0.73842686 0.30188191 1.6880001 0
-0.73250759 0.32407913 1.6880001 0
-0.82425606 0.44542381 1.688 5.8932686e-39
-0.81833678 0.44690365 1.6880001 3.4079789e-39
-0.81833678 0.45282286 1.6880001 4.0511791e-39
-0.52237409 0.62744087 1.6880001 0
-0.70735073 0.65851694 1.6880001 0
-0.87456965 0.66739583 1.6880001 8.7498674e-39
-0.86747921 0.66570556 1.6800001 8.6580291e-39
-0.70587099 0.66443616 1.688 3.6994279e-43
-0.88196874 0.67035544 1.6880001 8.4729049e-39
-0.87604952 0.67183518 1.6880001 8.6583808e-39
-0.86600637 0.67012399 1.6800001 8.4761405e-39
-0.70439112 0.67183518 1.6880001 5.5608708e-40
-0.69995171 0.67035544 1.6880001 9.8090893e-45
-0.85641217 -0.59027016 1.6960001 1.1615199e-38
-0.85195166 -0.57242829 1.6960001 1.0689285e-38
-0.49808693 -0.49213964 1.6960001 6.2685643e-39
-0.50514936 -0.48656407 1.6960001 9.7720123e-39
-0.73399681 -0.20171282 1.6960001 3.2181898e-39
-0.72323495 -0.20327047 1.6960002 3.4022181e-39
-0.78236824 -0.11567511 1.6960001 8.934637e-39
-0.77506149 -0.11363605 1.6960002 8.3800297e-39
-0.76571578 -0.111512 1.6960001 7.7335813e-39
-0.75679481 -0.111512 1.6960001 7.4577048e-39
-0.77166301 -0.10853834 1.6960001 7.640671e-39
-0.76571578 -0.10853835 1.6960001 7.7328666e-39
-0.75471324 -0.10615943 1.6960001 7.6406583e-39
-0.73350114 -0.054516979 1.6960001 1.2864158e-39
-0.72467929 -0.053823125 1.6960001 2.7550649e-40
-0.71516365 -0.055012591 1.6960001 0
-0.73895288 -0.047578454 1.6960001 2.3934626e-39
-0.51890248 -0.040144321 1.6960001 2.7550649e-40
-0.49213964 -0.043117974 1.6960001 7.3468397e-40
-0.48520112 -0.045100413 1.6960001 1.1938615e-39
-0.47727135 -0.046091627 1.6960001 1.5612034e-39
-0.51592886 -0.037170667 1.6960001 1.196374e-39
-0.75084746 -0.0223024 1.6960001 1.1974488e-39
-0.74787378 -0.0223024 1.6960001 1.8438846e-40
-0.75084746 -0.019328747 1.6960001 7.36657e-39
-0.81626785 0.0044604801 1.6960001 8.6598521e-39
-0.84154391 0.01784192 1.6960001 8.8428239e-39
-0.83410978 0.014372658 1.6960001 8.6591361e-39
-0.82370198 0.010407787 1.6960001 8.842091e-39
-0.54863906 0.019328747 1.6960001 5.5256239e-39
-0.84600437 0.025276054 1.6960001 8.7524317e-39
-0.54566538 0.023789227 1.6960001 3.7695601e-39
-0.53823125 0.025276054 1.6960001 4.6000257e-39
-0.51444203 0.028249707 1.6960001 4.8744559e-39
-0.50700796 0.028249707 1.6960001 4.3205731e-39
-0.48173183 0.025276054 1.6960001 5.3339922e-39
-0.4742977 0.025276054 1.6960001 5.3339922e-39
-0.8474912 0.043117974 1.6960001 9.0293619e-39
-0.85492533 0.056499414 1.6960001 9.766948e-39
-0.89060915 0.060959894 1.6960001 1.0231544e-38
-0.88614869 0.062446721 1.6960001 1.0784359e-38
-0.87425411 0.066907197 1.6960001 1.0969838e-38
-0.86639518 0.066057585 1.6960002 1.0692158e-38
-0.93224031 0.16503777 1.6960001 1.3913201e-38
-0.92926663 0.16801141 1.6960001 1.1883472e-38
-0.73300552 0.27654976 1.6960001 0
-0.77314985 0.28993121 1.6960001 0
-0.74447542 0.28610793 1.6960002 0
-0.73449236 0.28324047 1.6960001 0
-0.7627421 0.2958785 1.6960001 4.5917748e-40
-0.75620008 0.29706797 1.6960001 5.5208917e-40
-0.74447531 0.2950289 1.6960002 0
-0.73399681 0.29885215 1.6960001 0
-0.72493428 0.29630333 1.6960002 0
-0.75976843 0.30182582 1.6960001 3.6877691e-39
-0.73523581 0.30405605 1.6960001 0
-0.72557139 0.30479947 1.6960001 0
-0.51444203 0.62892765 1.6960001 0
-0.703269 0.66609836 1.6960001 0
-0.67799294 0.66461152 1.6960001 0
-0.88466185 0.6765061 1.6960001 8.5654621e-39
-0.703269 0.67055881 1.6960001 0
-0.677993 0.67353249 1.6960001 0
-0.50297213 -0.4865303 1.705 6.637679e-39
-0.49400386 -0.48653024 1.705 5.8054184e-39
-0.73988473 -0.20178674 1.705 2.8515639e-39
-0.66664362 -0.20178674 1.705 2.1122164e-39
-0.73390591 -0.19879732 1.7050002 2.2980398e-39
-0.72643232 -0.19879732 1.705 2.4824283e-39
-0.66664362 -0.19879732 1.705 3.859602e-39
-0.77501059 -0.11733525 1.705 7.6424618e-39
-0.76529497 -0.11608966 1.7050002 7.4577104e-39
-0.7554298 -0.1144953 1.7050002 7.1814753e-39
-0.7518425 -0.10911432 1.705 7.2736695e-39
-0.73390585 -0.052315082 1.705 6.4320721e-40
-0.72344285 -0.052315082 1.705 0
-0.70401156 -0.055304516 1.705 0
-0.47382522 -0.052315082 1.7050002 3.2199863e-39
-0.73749322 -0.048129875 1.7050002 0
-0.50471604 -0.040357351 1.7050002 4.5917748e-40
-0.49475121 -0.040357351 1.7050002 7.3468397e-40
-0.48578289 -0.044094138 1.705 1.102026e-39
-0.47531992 -0.047830932 1.705 2.0203809e-39
-0.4678463 -0.049325649 1.705 1.5612034e-39
-0.5216561 -0.034378484 1.705 3.3186503e-39
-0.51866668 -0.034378484 1.705 3.405472e-39
-0.81462055 -0.0014947166 1.705 7.273301e-39
-0.80266285 -0.0074735833 1.705 4.0429142e-39
-0.82358891 0.0074735833 1.705 8.9357104e-39
-0.81761003 0.0014947166 1.705 7.2718646e-39
-0.8415255 0.011957733 1.705 8.3843527e-39
-0.83554667 0.010463017 1.7050002 8.3832667e-39
-0.5231508 0.028399616 1.705 4.964139e-39
-0.5022248 0.028399616 1.705 5.0581269e-39
-0.49624592 0.028399616 1.705 5.4261864e-39
-0.47382522 0.027403139 1.7050002 5.1503212e-39
-0.46560422 0.026157541 1.705 5.4254689e-39
-0.51418257 0.03138905 1.705 3.8621131e-39
-0.50969839 0.03138905 1.705 4.4156372e-39
-0.86544096 0.05829395 1.705 1.0782538e-38
-0.88337755 0.064272813 1.7050002 1.1060232e-38
-0.87739867 0.064272813 1.705 1.0691802e-38
-0.86843038 0.061283384 1.705 1.0969097e-38
-0.74287421 0.28250146 1.705 0
-0.75483191 0.2959539 1.705 2.7586522e-40
-0.73390585 0.30940634 1.705 0
-0.72493756 0.30342749 1.705 0
-0.80864173 0.37218446 1.705 2.4809933e-39
-0.84750432 0.52763498 1.705 3.136787e-39
-0.84750432 0.53062439 1.705 3.0409914e-39
-0.68408203 0.67411727 1.7050002 0
-0.68607497 0.68009609 1.705 0
-0.50458133 -0.48505878 1.7130001 5.991253e-39
-0.49406919 -0.48505878 1.7130001 6.2671224e-39
-0.48580965 -0.48580965 1.7130001 6.5440778e-39
-0.66526639 -0.20273355 1.7130001 2.2958874e-39
-0.74335635 -0.19973008 1.7130001 2.1136513e-39
-0.72383386 -0.19973008 1.7130001 2.6671754e-39
-0.66626757 -0.19772778 1.7130001 3.767049e-39
-0.76400518 -0.12426816 1.7130002 7.0885636e-39
-0.75837362 -0.12314186 1.7130001 7.088565e-39
-0.76738405 -0.11863667 1.7130001 7.4577062e-39
-0.7547695 -0.1162339 1.7130002 7.0885608e-39
-0.74836206 -0.11363091 1.7130001 6.9960022e-39
-0.70130789 -0.055564009 1.7130001 0
-0.69830447 -0.055564009 1.7130001 0
-0.73284423 -0.04955709 1.7130001 0
-0.50908649 -0.040546712 1.7130001 7.3468397e-40
-0.49106571 -0.040546712 1.7130001 7.3468397e-40
-0.48355705 -0.040546712 1.7130001 8.2651947e-40
-0.47354552 -0.045552477 1.7130002 2.2040519e-39
-0.81243598 -0.034539789 1.7130001 4.1386958e-39
-0.53311414 -0.034539789 1.7130001 6.2613196e-39
-0.52260202 -0.03153633 1.7130001 4.6043487e-39
-0.50157785 -0.037543248 1.7130001 7.3468397e-40
-0.80943245 -0.025529411 1.7130001 4.0425555e-39
-0.80883181 -0.015918341 1.7130002 4.0443492e-39
-0.84347171 0.0065074968 1.7130001 7.4627719e-39
-0.83586293 0.0069079581 1.7130002 8.1056092e-39
-0.82595146 0.0030034599 1.7130001 7.6428192e-39
-0.84847742 0.01351557 1.7130001 8.6598676e-39
-0.49256742 0.02853287 1.7130001 5.4261864e-39
-0.48505878 0.02853287 1.7130001 5.1506799e-39
-0.47905186 0.02853287 1.7130001 5.0588444e-39
-0.46403456 0.02853287 1.7130001 4.9666502e-39
-0.52110028 0.03153633 1.7130001 4.2305313e-39
-0.50608301 0.031536333 1.7130001 4.9662914e-39
-0.47304496 0.031536333 1.7130001 5.0588444e-39
-0.3258754 0.033038057 1.7130002 6.2559471e-39
-0.31986848 0.034539789 1.7130001 5.4261864e-39
-0.94158477 0.046553634 1.7130001 1.3366557e-38
-0.94158477 0.055564012 1.7130001 1.2997403e-38
-0.94158471 0.063072659 1.7130001 1.2165839e-38
-0.93858123 0.061570931 1.7130001 1.2165838e-38
-0.87550861 0.061570931 1.7130001 1.1061292e-38
-0.78240132 0.28683043 1.7130001 0
-0.77789617 0.28683043 1.7130002 0
-0.77639443 0.29283735 1.7130001 0
-0.72833902 0.3108581 1.7130001 0
-0.70130789 0.3408927 1.7130001 0
-0.6973033 0.34189388 1.7130001 0
-0.69680274 0.35440826 1.7130001 0
-0.81694114 0.37393078 1.7130001 2.2966049e-39
-0.85298264 0.50908649 1.7130001 9.1182827e-39
-0.8514809 0.51359165 1.7130001 8.5665495e-39
-0.85448438 0.53311414 1.7130001 8.6605654e-39
-0.69229752 0.67728025 1.7130001 0
-0.6877923 0.67427677 1.7130001 0
-0.69229752 0.6817854 1.7130001 0
-0.82274288 -0.57516521 1.7220001 1.1615517e-38
-0.81821406 -0.57667482 1.7220001 1.1520467e-38
-0.50270343 -0.48458803 1.7220001 5.8047093e-39
-0.49515536 -0.48458803 1.7220001 6.4515067e-39
-0.4839842 -0.48338032 1.7220001 5.7136025e-39
-0.75028116 -0.2037987 1.7220001 2.9426819e-39
-0.71405023 -0.2037987 1.7220001 3.1292228e-39
-0.6648798 -0.194741 1.7220002 3.216036e-39
-0.65849626 -0.19534484 1.7220001 3.2163948e-39
-0.75782925 -0.13133694 1.7220001 6.902736e-39
-0.76235807 -0.1283177 1.7220001 7.0885566e-39
-0.75571579 -0.12499654 1.7220001 6.9045296e-39
-0.7525456 -0.11850517 1.7220001 6.903815e-39
-0.83255547 -0.10340898 1.7220001 1.004424e-38
-0.82878137 -0.10265416 1.7220001 1.2165104e-38
-0.83331025 -0.095106065 1.7220001 7.3655232e-39
-0.82878137 -0.095106065 1.7220001 1.0871117e-38
-0.647627 -0.055855941 1.7220001 0
-0.82274288 -0.0452886 1.7220001 3.77243e-39
-0.81972367 -0.040759739 1.7220001 4.2276614e-39
-0.74122339 -0.046798218 1.7220001 0
-0.73820418 -0.046798218 1.7220001 0
-0.49062648 -0.040759739 1.7220001 8.2651947e-40
-0.48156878 -0.042269357 1.7220001 1.102026e-39
-0.47854954 -0.042269357 1.7220001 1.2856969e-39
-0.46949181 -0.043778978 1.7220001 1.8367099e-39
-0.81972367 -0.036230877 1.7220001 4.5975145e-39
-0.52534771 -0.033211641 1.7220001 4.0522609e-39
-0.51553524 -0.036985688 1.7220001 9.1835496e-41
-0.50773549 -0.035727672 1.7220001 3.6734198e-40
-0.49817461 -0.037740499 1.7220001 5.5101298e-40
-0.81670445 -0.02566354 1.7220001 3.4036531e-39
-0.84651941 -0.0041514551 1.7220001 7.2754968e-39
-0.82727176 -0.00150962 1.7220001 6.0744158e-39
-0.81368518 -0.0075480998 1.7220001 3.8585258e-39
-0.85293531 0.0045288601 1.7220001 8.2014061e-39
-0.84629297 0.0027173162 1.7220001 7.368061e-39
-0.83481991 0.0035224468 1.7220001 7.3676518e-39
-0.85293531 0.01056734 1.7220001 8.3847254e-39
-0.53440547 0.02868278 1.7220001 4.9662914e-39
-0.52685738 0.031702019 1.7220001 4.4159959e-39
-0.5132708 0.034721259 1.7220001 4.9662914e-39
-0.50370991 0.033714846 1.7220001 4.9662914e-39
-0.49515533 0.031702019 1.7220001 5.332916e-39
-0.48458803 0.031702019 1.7220001 5.3336334e-39
-0.47553033 0.034721263 1.7220001 5.1499624e-39
-0.46466103 0.033513565 1.7220001 5.0592031e-39
-0.45439562 0.031702019 1.7220001 5.1517561e-39
-0.3238135 0.036230877 1.7220001 6.6261687e-39
-0.8770892 0.058875181 1.7220001 1.1243158e-38
-0.86501223 0.052836701 1.7220001 8.9364741e-39
-0.78651208 0.28431177 1.7220001 0
-0.77745432 0.28833741 1.7220001 0
-0.78953123 0.29286629 1.7220001 0
-0.77443504 0.2943759 1.7220001 0
-0.76688695 0.29739514 1.7220001 0
-0.70499253 0.31551057 1.7220001 0
-0.69593477 0.31852981 1.7220001 0
-0.70197332 0.3245683 1.7220001 0
-0.69533092 0.32517216 1.7220001 0
-0.70272815 0.33589044 1.7220001 0
-0.69566035 0.3349984 1.7220001 0
-0.70559639 0.34751454 1.7220001 0
-0.69555736 0.34608039 1.7220001 0
-0.70348293 0.35174146 1.7220001 0
-0.69550353 0.35389808 1.7220002 0
-0.8589738 0.51629007 1.7220001 9.0260969e-39
-0.85595453 0.52081889 1.7220001 7.736091e-39
-0.69492841 0.67580652 1.7220001 0
-0.69895405 0.68385786 1.7220001 0
-0.51223981 -0.48784745 1.7390001 6.6337567e-39
-0.50497407 -0.48367745 1.7350001 6.6337497e-39
-0.49539348 -0.48232183 1.7334002 7.0046874e-39
-0.48381746 -0.48128125 1.7336668 6.2664077e-39
-0.47558761 -0.48226473 1.7310002 5.8047051e-39
-0.49166593 -0.47643942 1.7363336 7.3738315e-39
-0.48513019 -0.4764246 1.7378573 6.9124946e-39
-0.4744114 -0.47643939 1.7363335 6.0805788e-39
0.85678208 -0.34301776 1.7390001 9.3135929e-39
0.71805048 -0.24392374 1.7390001 7.3749161e-39
-0.75572002 -0.20334634 1.7310001 2.3895166e-39
-0.72309357 -0.20258757 1.7310001 2.8515639e-39
-0.7177822 -0.20182882 1.7310001 2.8515639e-39
-0.72109956 -0.19971256 1.7390001 2.207998e-39
-0.71550965 -0.19666353 1.7390002 1.7455919e-39
-0.65708184 -0.19272377 1.7310001 2.666458e-39
-0.66133118 -0.18804026 1.7326001 1.6533977e-39
-0.84001237 -0.13415805 1.7390001 8.6605794e-39
-0.74615204 -0.13248098 1.737 6.258447e-39
-0.73939383 -0.13263352 1.7390001 5.9815056e-39
-0.84204507 -0.12856814 1.7390001 8.3839995e-39
-0.83766556 -0.12443582 1.7310001 8.3847184e-39
-0.75238144 -0.12656033 1.7310002 6.5353926e-39
-0.74483198 -0.12631646 1.7318001 6.5350311e-39
-0.73539609 -0.12510596 1.7372861 6.2584456e-39
-0.84611046 -0.11281472 1.7390001 7.0928726e-39
-0.83918303 -0.11533076 1.7310001 7.8307991e-39
-0.75116742 -0.11836578 1.7310001 6.9949288e-39
-0.7450974 -0.11836578 1.7310002 6.9020157e-39
-0.84481305 -0.10503548 1.7363334 5.8010618e-39
-0.83918303 -0.1062257 1.7310001 7.9211843e-39
-0.84351557 -0.095745735 1.7336668 4.7815443e-39
-0.84611046 -0.085373305 1.7390001 4.7826247e-39
-0.82704294 -0.040972769 1.7310001 3.221417e-39
-0.47400489 -0.04102011 1.733 1.3775324e-39
-0.4657135 -0.045134015 1.7354447 1.8367099e-39
-0.45583254 -0.045735702 1.7390002 2.3877229e-39
-0.44668537 -0.045430798 1.7390002 2.5713939e-39
-0.43753821 -0.044211175 1.7390001 3.3060779e-39
-0.85678208 -0.032014988 1.7390001 8.0137723e-39
-0.8308652 -0.033539511 1.7390001 3.5880415e-39
-0.8255254 -0.034902729 1.7310001 3.1292228e-39
-0.52050591 -0.031867709 1.7310001 5.1585762e-39
-0.5150429 -0.033081718 1.7310002 2.1172401e-39
-0.50472379 -0.033081718 1.7310002 6.4284847e-40
-0.49660671 -0.035364512 1.7350001 4.5917748e-40
-0.4847984 -0.038113084 1.7390001 8.2651947e-40
-0.47565126 -0.038113084 1.7390001 9.1835496e-40
-0.85525763 -0.022867849 1.7390001 7.182225e-39
-0.84915948 -0.022867849 1.7390001 6.5346947e-39
-0.82781619 -0.025916897 1.7390001 3.2192646e-39
-0.51376438 -0.028965943 1.7390001 5.1539099e-39
-0.50496703 -0.028899316 1.7350001 1.563716e-39
-0.85481489 -0.015210166 1.7350001 8.0134206e-39
-0.84801102 -0.014803951 1.7360911 6.3513713e-39
-0.82439452 -0.015210168 1.7350001 3.1277879e-39
-0.86089194 -0.0045700632 1.7350001 8.2021236e-39
-0.85638142 -0.0045525301 1.7310002 8.0180869e-39
-0.84360456 -0.0052410052 1.7345557 5.8911162e-39
-0.83455157 -0.0049450584 1.734 4.8776873e-39
-0.82495999 -0.0060788067 1.733 3.5873241e-39
-0.86042821 0.0045525301 1.7310002 8.3857974e-39
-0.84373558 0.00151751 1.7310001 6.3506538e-39
-0.83918303 0.00151751 1.7310001 5.7974744e-39
-0.8617537 0.013678631 1.7336668 8.7520674e-39
-0.52354097 0.034902729 1.7310002 5.2450279e-39
-0.51196021 0.037042968 1.7363336 4.7833379e-39
-0.50403684 0.037310496 1.737 4.9666502e-39
-0.49547043 0.035544802 1.7326001 5.149245e-39
-0.48560321 0.034902729 1.7310001 5.4251102e-39
-0.47260225 0.038113084 1.7390001 5.6094986e-39
-0.46528298 0.037042968 1.7363336 5.3347096e-39
-0.45550138 0.036278594 1.7344288 5.4265451e-39
-0.32474715 0.040972769 1.7310001 6.1637402e-39
-0.79122758 0.14787877 1.7390001 1.102026e-39
-0.51986247 0.15550138 1.7390001 9.5760393e-39
-0.78252935 0.28478605 1.7310002 0
-0.77627313 0.28735447 1.732 0
-0.76937759 0.28984439 1.7310001 0
-0.7724126 0.29439694 1.7310001 0
-0.76836586 0.29490277 1.7310002 0
-0.74357986 0.30805454 1.7310001 0
-0.73902738 0.30805454 1.7310001 0
-0.72536981 0.30805454 1.7310001 0
-0.69300002 0.30478945 1.7366003 0
-0.68489212 0.30604804 1.7390002 0
-0.74206239 0.31564206 1.7310001 0
-0.73479748 0.31463671 1.7353637 0
-0.72567314 0.31557631 1.7390002 0
-0.71601784 0.31760901 1.7390001 0
-0.70480502 0.31584486 1.7376668 0
-0.69563645 0.31509241 1.7363334 0
-0.74549192 0.32167441 1.7390001 0
-0.73674315 0.32200617 1.7342001 0
-0.72567308 0.32167441 1.7390001 0
-0.71487957 0.32549229 1.7350001 0
-0.70607585 0.32496396 1.7310002 0
-0.6947161 0.32322964 1.7310002 0
-0.71171224 0.33536971 1.7310002 0
-0.70685619 0.3365837 1.7310002 0
-0.71171218 0.34143975 1.7310001 0
-0.71322966 0.35206231 1.7310001 0
-0.39327145 0.66864717 1.7374003 1.1422434e-38
-0.39510089 0.67352289 1.7374001 1.1145488e-38
-0.38875344 0.67383933 1.7390001 2.2090742e-39
0.85968387 -0.68652117 1.748 8.6660193e-39
0.86274868 -0.68652117 1.748 8.4812693e-39
-0.51335847 -0.48577502 1.748 7.4631545e-39
-0.50722879 -0.48271018 1.748 6.8192144e-39
-0.50263155 -0.47964537 1.748 7.5574969e-39
-0.49496949 -0.47402653 1.748 7.7418924e-39
-0.48615813 -0.47313261 1.748 7.3738245e-39
-0.47504812 -0.47198328 1.748 7.4627831e-39
-0.46432123 -0.47198331 1.748 6.1738492e-39
-0.47045088 -0.46738607 1.748 5.8057659e-39
-0.46738607 -0.46738607 1.748 6.4511339e-39
0.69724804 -0.22373235 1.748 1.235025e-38
-0.73249352 -0.20074615 1.748 1.931774e-39
-0.72789633 -0.2053434 1.748 2.7608046e-39
-0.72329909 -0.1961489 1.748 1.1938615e-39
-0.84129494 -0.16090339 1.748 8.9371761e-39
-0.83823007 -0.16550064 1.748 8.7506339e-39
-0.96082318 -0.15783857 1.748 1.2356012e-38
-0.84282732 -0.15477376 1.748 8.9360929e-39
-0.84523553 -0.1460171 1.7480001 8.7520478e-39
-0.85048938 -0.13025513 1.748 8.4754721e-39
-0.84665835 -0.13715099 1.748 8.6594948e-39
-0.73402596 -0.13127674 1.748 5.7971157e-39
-0.8526786 -0.12368765 1.7480001 7.6442667e-39
-0.73198271 -0.1261687 1.748 6.0744158e-39
-0.72789633 -0.12259307 1.748 6.0740585e-39
-0.96082318 -0.114931 1.748 1.2538959e-38
-0.95162868 -0.114931 1.748 1.2538606e-38
-0.85355425 -0.11615694 1.748 6.9974708e-39
-0.85355425 -0.10573652 1.748 4.8730406e-39
-0.85355425 -0.098074451 1.748 3.863562e-39
-0.71870184 -0.056699295 1.748 0
-0.83823007 -0.04137516 1.748 3.0370286e-39
-0.46432123 -0.04137516 1.748 1.8367099e-39
-0.45512676 -0.04137516 1.748 2.0207396e-39
-0.44542146 -0.043929182 1.748 2.3877229e-39
-0.43735075 -0.043214057 1.748 2.7561411e-39
-0.87194318 -0.032180678 1.748 9.0297417e-39
-0.85559744 -0.035245504 1.748 6.2595456e-39
-0.84129494 -0.036777921 1.748 3.7752998e-39
-0.83823007 -0.035245508 1.748 3.6805945e-39
-0.49435654 -0.033406612 1.748 4.5917748e-40
-0.48654121 -0.034479301 1.748 7.3468397e-40
-0.47811294 -0.035245508 1.748 9.1835496e-40
-0.46125641 -0.036777921 1.748 1.8367099e-39
-0.45589298 -0.037544128 1.748 1.5612034e-39
-0.44286746 -0.038310334 1.748 2.1122164e-39
-0.43827021 -0.038310334 1.748 2.3887991e-39
-0.87194318 -0.026051028 1.748 8.6613305e-39
-0.86619663 -0.026434131 1.748 8.1092161e-39
-0.85457581 -0.027072636 1.748 6.2609777e-39
-0.84129494 -0.026051028 1.748 4.5085489e-39
-0.83669776 -0.026051028 1.748 3.5884003e-39
-0.50109917 -0.029115854 1.748 0
-0.86712712 -0.015543051 1.7480001 8.384724e-39
-0.85048938 -0.019921374 1.748 5.8918253e-39
-0.84405327 -0.014404684 1.748 4.6039731e-39
-0.83669758 -0.015324134 1.748 3.6827469e-39
-0.86887836 -0.0061296532 1.748 8.3861603e-39
-0.87194318 0.0061296532 1.748 8.8453504e-39
-0.87194318 0.010726893 1.748 8.9378964e-39
-0.49496955 0.038310334 1.748 5.2417979e-39
-0.48577505 0.038310334 1.748 5.4258277e-39
-0.47964537 0.038310334 1.748 5.1513974e-39
-0.46432123 0.038310334 1.748 5.7946046e-39
-0.51182604 0.04137516 1.748 4.9684621e-39
-0.50416398 0.04137516 1.748 5.1503296e-39
-0.47351572 0.04137516 1.748 5.2432329e-39
-0.46432123 0.04137516 1.748 5.6105748e-39
-0.45512676 0.04137516 1.748 5.6098574e-39
-0.44593233 0.04137516 1.748 5.6102161e-39
-0.80145216 0.15170892 1.748 6.4446347e-39
-0.79225767 0.15477374 1.748 2.4845806e-39
-0.79532254 0.28349647 1.748 0
-0.81524396 0.29728818 1.748 5.5101298e-40
-0.80553859 0.29677737 1.748 9.1835496e-41
-0.69111842 0.29882059 1.748 0
-0.68447798 0.29575574 1.748 0
-0.80451697 0.30188543 1.748 0
-0.69111842 0.30188543 1.748 0
-0.68498874 0.30188543 1.748 0
-0.67656052 0.30418402 1.748 0
-0.78919286 0.31567717 1.748 2.8591155e-39
-0.7023561 0.31312314 1.748 0
-0.69724804 0.31261232 1.748 0
-0.74628526 0.32640404 1.748 0
-0.73249352 0.32487163 1.748 0
-0.72585315 0.32589322 1.748 0
-0.71410465 0.32180679 1.748 0
-0.48271018 0.64514601 1.748 0
-0.47658056 0.6420812 1.748 0
-0.40455711 0.66506737 1.748 1.1972365e-38
-0.395502 0.66632128 1.7479999 9.9494783e-39
-0.40379089 0.67502809 1.748 1.151209e-38
-0.3907654 0.67272943 1.748 5.1628978e-39
-0.39842749 0.68192393 1.748 1.0778138e-38
0.86616391 -0.68440813 1.7570002 7.9277452e-39
0.87027138 -0.685435 1.7570002 7.8362614e-39
0.86719078 -0.67619318 1.7570002 7.743714e-39
0.87027138 -0.67619318 1.7570002 7.744063e-39
-0.51908225 -0.49135676 1.7570001 7.0021819e-39
-0.51292104 -0.48519555 1.7570001 7.2808988e-39
-0.50984043 -0.48211494 1.7570001 7.3727385e-39
-0.50429535 -0.47718596 1.7570002 7.5575025e-39
-0.4944374 -0.46979254 1.7570002 8.0188254e-39
-0.48519558 -0.46979254 1.7570002 7.0958083e-39
-0.47595376 -0.46722537 1.7570002 5.7125193e-39
-0.46609578 -0.46578774 1.7570002 5.4373589e-39
-0.45438951 -0.46671194 1.7570002 4.8834775e-39
-0.74396652 -0.20177974 1.7570001 1.8395798e-39
-0.75012773 -0.19869913 1.7570001 0
-0.74704713 -0.19869913 1.7570001 0
-0.7331844 -0.19869913 1.7570001 9.1835496e-40
-0.84408623 -0.17251398 1.7570001 9.8584136e-39
-0.83946532 -0.17713489 1.7570001 9.7647858e-39
-0.95652837 -0.16789307 1.7570001 1.2353849e-38
-0.8466534 -0.16481248 1.7570002 9.3059586e-39
-0.85178775 -0.15557066 1.7570002 9.4906932e-39
-0.85486835 -0.14478852 1.7570001 8.5672908e-39
-0.86205643 -0.13195267 1.7570002 7.184013e-39
-0.85671675 -0.13462251 1.7570002 8.290355e-39
-0.72856349 -0.13246609 1.7570001 5.5208917e-39
-0.86256987 -0.12630488 1.7570001 6.8141613e-39
-0.73164409 -0.12784518 1.7570001 5.9815042e-39
-0.72548282 -0.12476458 1.7570001 5.9815042e-39
-0.86102957 -0.11398245 1.7570001 6.3506706e-39
-0.86102957 -0.1042272 1.7570002 4.3227339e-39
-0.85794896 -0.092418201 1.7570001 4.1386958e-39
-0.85794896 -0.084716693 1.7570002 4.7847827e-39
-0.84870714 -0.041588191 1.7570001 3.7752998e-39
-0.85302001 -0.0360431 1.7570002 5.2461055e-39
-0.84793699 -0.034656826 1.7570001 3.9596883e-39
-0.48827615 -0.032346372 1.7570001 7.3468397e-40
-0.47441342 -0.038507584 1.7570001 1.1938615e-39
-0.46568507 -0.036453851 1.7570002 1.3775324e-39
-0.45438948 -0.035426978 1.7570002 1.5612034e-39
-0.44591781 -0.03619713 1.7570001 1.6537564e-39
-0.43744615 -0.036967281 1.7570001 2.0218158e-39
-0.85178775 -0.024644854 1.7570001 5.0631492e-39
-0.84870714 -0.024644854 1.7570001 4.6940135e-39
-0.50059861 -0.029265763 1.7570001 0
-0.49597767 -0.029265763 1.7570001 2.7550649e-40
-0.50429535 0.044052675 1.7570002 4.7840554e-39
-0.4944374 0.041588195 1.7570002 5.3332747e-39
-0.48519555 0.041588191 1.7570001 5.3339992e-39
-0.46363133 0.044668801 1.7570002 5.6102161e-39
-0.45747009 0.044668797 1.7570001 5.6105748e-39
-0.44206706 0.044668797 1.7570001 5.6105748e-39
-0.80513853 0.15645082 1.7570002 5.5230596e-39
-0.7975691 0.15680288 1.7570002 2.1158037e-39
-0.80711895 0.16173185 1.7570001 5.8021632e-39
-0.80557865 0.28700989 1.7570002 2.7622395e-40
-0.80763239 0.29214424 1.7570002 2.7550649e-40
-0.685435 0.29111737 1.7570002 0
-0.67479295 0.29447803 1.7570002 0
-0.68389469 0.30035916 1.7570001 0
-0.67531306 0.30167943 1.7570002 0
-0.72702318 0.3173025 1.7570001 0
-0.70391864 0.3188428 1.7570001 9.8090893e-45
-0.79325622 0.32654431 1.7570001 2.7644045e-39
-0.75628895 0.32346371 1.7570001 0
-0.74088591 0.32500404 1.7570002 0
-0.73780531 0.32808462 1.7570001 0
-0.70391864 0.3219234 1.7570001 0
-0.79325622 0.33424583 1.7570001 9.2266255e-40
-0.7809338 0.39277735 1.7570001 2.4809933e-39
0.40664008 0.46825221 1.7570001 1.4375306e-38
0.40741023 0.47518358 1.7570001 1.4283835e-38
-0.40509981 0.66181701 1.7570002 1.2248234e-38
-0.39585799 0.66387075 1.7570002 9.0311402e-39
-0.43194595 -0.52638572 1.766 8.0231876e-39
-0.52328932 -0.49387366 1.766 6.9117912e-39
-0.51554841 -0.48458454 1.7660002 7.4652915e-39
-0.51245201 -0.47839174 1.766 7.6497009e-39
-0.5068785 -0.47405678 1.766 8.1074407e-39
-0.49387369 -0.46910259 1.7660002 7.6507645e-39
-0.48396525 -0.46662551 1.766 6.9106968e-39
-0.47735962 -0.46394193 1.7660002 6.1731387e-39
-0.46600622 -0.46445799 1.766 5.1603993e-39
-0.45423993 -0.46662545 1.766 4.9742396e-39
-0.4458797 -0.46910259 1.766 5.5256239e-39
-0.84066898 -0.19507235 1.766 1.01368e-38
-0.73539186 -0.19662055 1.7660002 9.1835496e-41
-0.84376538 -0.18423501 1.766 9.3995836e-39
-0.84840989 -0.17649403 1.766 1.0320112e-38
-0.85408664 -0.16565669 1.7660002 1.0043881e-38
-0.85924733 -0.15636753 1.7660002 1.0043867e-38
-0.86234367 -0.14398198 1.7660002 5.1539253e-39
-0.86750436 -0.13675708 1.7660002 7.0914657e-39
-0.72648972 -0.13430576 1.7659999 5.0617143e-39
-0.71592885 -0.13292345 1.766 4.785133e-39
-0.70597613 -0.13159643 1.766 4.5993138e-39
-0.87163281 -0.12695184 1.766 8.1971056e-39
-0.86853647 -0.12230727 1.766 6.2602631e-39
-0.86853647 -0.11766269 1.766 5.7089096e-39
-0.86544007 -0.10682534 1.766 3.7663736e-39
-0.61772913 -0.060379539 1.766 7.0882006e-39
-0.60379541 -0.060379539 1.766 5.3390144e-39
-0.61308455 -0.057283152 1.766 5.7971157e-39
-0.60534358 -0.057283156 1.7660002 4.8762496e-39
-0.59605443 -0.057283152 1.766 1.3786086e-39
-0.42420495 -0.043349411 1.766 3.1252767e-39
-0.48458451 -0.032512061 1.7660002 7.3468397e-40
-0.47529536 -0.035608448 1.7660002 9.1835496e-40
-0.46755439 -0.034060255 1.766 1.5612034e-39
-0.50471103 0.047219895 1.766 5.4301338e-39
-0.49387369 0.044897608 1.7660002 5.1513974e-39
-0.48458451 0.043349411 1.766 5.3339992e-39
-0.47529536 0.044897608 1.7660002 5.6094986e-39
-0.45362067 0.044897608 1.7660002 5.6098574e-39
-0.44433147 0.044897605 1.766 5.5183806e-39
-0.43504232 0.044897608 1.7660002 5.1517561e-39
-0.81527865 0.16751452 1.766 9.2122916e-39
-0.80506057 0.16488259 1.7659999 1.7466681e-39
-0.79422319 0.16359243 1.7660002 3.032365e-39
-0.81744611 0.17184946 1.766 9.579628e-39
-0.60224718 0.17184946 1.766 3.9528724e-39
-0.59605449 0.17184946 1.7660002 3.9528724e-39
-0.70133156 0.2988013 1.766 0
-0.67656046 0.29260853 1.766 0
-0.79731959 0.3235724 1.766 2.9484371e-39
-0.75242198 0.33286157 1.766 0
-0.73384368 0.33595794 1.766 0
-0.4035624 0.65488577 1.766 1.1423525e-38
-0.39788568 0.66417491 1.766 1.142425e-38
-0.7168135 0.67965686 1.766 0
-0.7168135 0.6843015 1.766 0
-0.43283486 -0.53248036 1.7760001 7.9302731e-39
-0.42660704 -0.52780944 1.7760001 7.8366285e-39
-0.52625251 -0.49355632 1.7760001 7.4642405e-39
-0.52158159 -0.48732847 1.7760001 7.7415196e-39
-0.51846766 -0.48265761 1.7760001 7.5575053e-39
-0.51535368 -0.47565126 1.7760001 8.200344e-39
-0.50601196 -0.47253737 1.7760001 8.385108e-39
-0.44217664 -0.47175887 1.7760001 5.8972791e-39
-0.43594879 -0.47175887 1.7760001 6.637721e-39
-0.51223981 -0.46864495 1.7760001 8.4765707e-39
-0.50601196 -0.46864495 1.7760001 8.108863e-39
-0.49444607 -0.46731046 1.7760003 7.557141e-39
-0.48499304 -0.46319562 1.7760001 6.5426415e-39
-0.4748728 -0.46241713 1.7760003 5.8050667e-39
-0.46475255 -0.46475255 1.7760001 5.6206712e-39
-0.45681211 -0.46428546 1.7760003 5.9890978e-39
-0.44462332 -0.46731046 1.7760003 6.359702e-39
-0.43750575 -0.46864495 1.7760001 6.913952e-39
-0.48110065 -0.4593032 1.7760001 6.3578817e-39
-0.47642976 -0.4593032 1.7760001 5.8965546e-39
-0.84387231 -0.20551872 1.7760001 1.0416261e-38
-0.6305688 -0.19150607 1.7760001 2.666458e-39
-0.63368273 -0.18839216 1.7760001 2.1132926e-39
-0.59320176 -0.18216431 1.7760001 2.1132926e-39
-0.85788494 -0.17282256 1.7760001 1.0320115e-38
-0.86411279 -0.1634808 1.7760003 9.9527686e-39
-0.86722678 -0.15413904 1.7760003 8.2932529e-39
-0.87189764 -0.14479728 1.7760003 6.4468081e-39
-0.8765685 -0.13389856 1.7760001 8.6584312e-39
-0.71464461 -0.1364935 1.7760003 4.4152799e-39
-0.70530289 -0.13337958 1.7760003 4.4152799e-39
-0.87864447 -0.12611377 1.7760003 9.2141414e-39
-0.87501156 -0.11521503 1.7760001 6.447541e-39
-0.87345457 -0.10431632 1.7760003 5.710664e-39
-0.87189764 -0.09497457 1.7760003 5.1549847e-39
-0.87158626 -0.086255588 1.7760003 5.5234085e-39
-0.62434095 -0.06383536 1.7760001 7.273301e-39
-0.61499918 -0.060721438 1.7760003 6.0744158e-39
-0.42193615 -0.043594882 1.7760001 3.3093065e-39
-0.41882223 -0.043594882 1.7760001 3.124918e-39
-0.48110065 -0.032696161 1.7760001 9.1835496e-40
-0.4748728 -0.032696165 1.7760003 9.1835496e-40
-0.4593032 -0.032696161 1.7760001 1.102026e-39
-0.44061968 -0.035810079 1.7760001 1.8395798e-39
-0.42660704 -0.038924001 1.7760001 2.666458e-39
-0.48421454 -0.02958224 1.7760003 7.3468397e-40
-0.47331583 -0.02958224 1.7760001 9.1835496e-40
-0.46553105 -0.02958224 1.7760003 1.102026e-39
-0.91082162 -0.0077848001 1.7760001 1.1339687e-38
-0.5028981 0.048265759 1.7760001 5.2464615e-39
-0.49511325 0.047487278 1.7760001 5.2443091e-39
-0.48732847 0.045151841 1.7760001 5.0592031e-39
-0.4748728 0.048265763 1.7760003 5.4251102e-39
-0.46553105 0.048265763 1.7760003 5.4258277e-39
-0.45618927 0.048265763 1.7760003 5.1510386e-39
-0.44529057 0.048265759 1.7760001 5.1517561e-39
-0.43439183 0.048265763 1.7760003 5.0599206e-39
-0.42816401 0.048265759 1.7760001 5.2439503e-39
-0.81117618 0.16970864 1.7760001 2.3923864e-39
-0.80494833 0.16867065 1.7760003 3.2181884e-39
-0.79560655 0.16867065 1.7760003 2.5721114e-39
-0.82259387 0.17697446 1.7760003 9.5796252e-39
-0.81584704 0.17282256 1.7760001 5.6177831e-39
-0.59475869 0.17593648 1.7760001 4.0447079e-39
-0.75201166 0.33474639 1.7760001 0
-0.74889773 0.33474639 1.7760001 0
-0.94203973 -0.58055937 1.7850001 1.3087058e-38
-0.93525875 -0.58160263 1.7850002 1.3455838e-38
-0.94360459 -0.57586479 1.7850001 1.2812994e-38
-0.93734515 -0.57742965 1.7850001 1.3179617e-38
-0.52578962 -0.48823321 1.7850001 7.2816471e-39
-0.50857627 -0.47101983 1.7850001 8.3840164e-39
-0.43659315 -0.47101983 1.7850001 7.2838079e-39
-0.50336009 -0.46684691 1.7850002 7.6500344e-39
-0.49605745 -0.46319565 1.7850001 7.3720406e-39
-0.48823321 -0.46163076 1.7850001 6.7263069e-39
-0.47206306 -0.46267399 1.7850002 5.7125109e-39
-0.46554288 -0.46241319 1.7850001 5.5292014e-39
-0.45432815 -0.46371722 1.7850001 6.5448009e-39
-0.44660822 -0.46350858 1.7850001 7.1905445e-39
-0.48467678 -0.45565584 1.7850001 6.358609e-39
-0.47519279 -0.45641464 1.7850001 5.345899e-39
-0.46476048 -0.45693621 1.7850001 5.1600686e-39
-0.45537135 -0.45850104 1.7850002 6.1770932e-39
-0.44754708 -0.45850104 1.7850001 6.360795e-39
-0.84658384 -0.21125475 1.7850001 1.1889255e-38
-0.85284323 -0.20186564 1.7850001 1.2446015e-38
-0.85284323 -0.19873595 1.7850001 1.1523362e-38
-0.61498606 -0.19456302 1.7850002 2.0203809e-39
-0.63376427 -0.18934685 1.7850001 2.1132926e-39
-0.60559696 -0.18621714 1.7850001 2.1132926e-39
-0.59725112 -0.18673877 1.7850001 2.4799171e-39
-0.87631601 -0.15179045 1.7850001 6.6344602e-39
-0.88101053 -0.14240135 1.7850001 9.5825301e-39
-0.70574737 -0.13509873 1.7850002 4.0482966e-39
-0.62476635 -0.073156744 1.785 7.087479e-39
-0.61811572 -0.071983099 1.7850001 7.2715073e-39
-0.6237492 -0.066036671 1.7850001 7.1796788e-39
-0.61655092 -0.065723702 1.7850001 7.0867615e-39
-0.41781494 -0.043815799 1.7850001 2.7593697e-39
-0.77303588 -0.037556402 1.7850001 0
-0.76521164 -0.032861851 1.7850001 0
-0.45224166 -0.032861851 1.7850001 1.3778912e-39
-0.43972284 -0.037556402 1.7850001 2.1140101e-39
-0.42250949 -0.039121252 1.7850001 2.666458e-39
-0.41781494 -0.039121252 1.7850001 3.5848129e-39
-0.76521164 -0.029732149 1.7850001 0
-0.47414955 -0.026602453 1.7850002 1.0101905e-39
-0.46789014 -0.026602451 1.7850001 1.0101905e-39
-0.91335076 -0.016170118 1.7850002 1.124785e-38
-0.49292776 0.04851035 1.7850001 4.6929373e-39
-0.48666835 0.048510354 1.7850002 4.690785e-39
-0.49605745 0.051640049 1.7850002 5.3383012e-39
-0.48458189 0.051640049 1.7850002 4.8766083e-39
-0.47414955 0.051640049 1.7850002 5.0595619e-39
-0.46476048 0.051640049 1.7850002 5.4261864e-39
-0.45537135 0.051640049 1.7850002 5.1517561e-39
-0.44598222 0.051640049 1.7850002 5.1517561e-39
-0.43398505 0.052683286 1.7850001 5.0599206e-39
-0.28532434 0.0563346 1.7850001 6.1651765e-39
-0.81528687 0.1747416 1.7850002 3.1310361e-39
-0.80589771 0.17161189 1.7850002 2.6682544e-39
-0.79494381 0.17369835 1.7850001 3.0388306e-39
-0.78398985 0.17369835 1.7850001 2.6653818e-39
-0.58368903 0.17995775 1.7850001 4.0461428e-39
-0.64941275 0.3067106 1.7850001 0
-0.64941275 0.31140515 1.7850001 0
-0.77251428 0.32601044 1.7850002 0
-0.64471817 0.32548881 1.7850001 0
-0.77303588 0.33018336 1.7850001 0
-0.7667765 0.33331305 1.7850001 0
-0.75425768 0.33957246 1.7850001 0
-0.64002365 0.33018336 1.7850001 0
-0.63480753 0.33644277 1.7850002 0
-0.74017406 0.34270215 1.7850001 0
-0.73704433 0.34270215 1.7850001 0
-0.63376427 0.34583184 1.7850001 0
-0.63689393 0.35522094 1.7850001 0
-0.94521677 -0.58663201 1.794 1.3088136e-38
-0.91061646 -0.57090461 1.794 1.1892125e-38
-0.907471 -0.57090461 1.794 1.1799929e-38
-0.89331627 -0.57405013 1.794 1.189032e-38
-0.88859808 -0.57405007 1.794 1.1522971e-38
-0.92005289 -0.56146818 1.794 1.2443484e-38
-0.91376191 -0.56461364 1.794 1.2166548e-38
-0.90668458 -0.56461364 1.794 1.2165828e-38
-0.92005289 -0.55674994 1.794 1.2350209e-38
-0.91439104 -0.55706447 1.794 1.2167259e-38
-0.907471 -0.55832267 1.794 1.179741e-38
-0.51428598 -0.47024927 1.794 8.2003496e-39
-0.44193995 -0.47024927 1.794 7.0990635e-39
-0.43879446 -0.47024927 1.794 7.2834576e-39
-0.51585871 -0.46710378 1.794 7.8337321e-39
-0.50589812 -0.46290979 1.794 7.0036e-39
-0.49698585 -0.46081281 1.794 6.7270188e-39
-0.44351268 -0.46553105 1.794 7.1905389e-39
-0.50406313 -0.45688099 1.794 6.4504403e-39
-0.49604216 -0.45578009 1.794 5.8958344e-39
-0.48597667 -0.45137638 1.794 5.250109e-39
-0.47418112 -0.45334232 1.7939999 6.2656945e-39
-0.46395832 -0.45399761 1.794 5.6214209e-39
-0.45452189 -0.45609462 1.794 6.0845416e-39
-0.47260839 -0.44744453 1.794 5.804359e-39
-0.46458742 -0.4469727 1.794 5.8969372e-39
-0.83197945 -0.2123199 1.794 0
-0.85557055 -0.20760168 1.794 1.1617335e-38
-0.85714328 -0.19659249 1.794 1.1799573e-38
-0.63224149 -0.19501975 1.794 2.7564998e-39
-0.62437785 -0.19344702 1.794 2.2966049e-39
-0.61703837 -0.19135003 1.794 2.1140101e-39
-0.59449571 -0.19030154 1.794 1.6530389e-39
-0.8602888 -0.18401058 1.794 1.0688887e-38
-0.61494136 -0.18558332 1.794 1.7452332e-39
-0.60393214 -0.18086509 1.794 1.0101905e-39
-0.86972523 -0.17142867 1.794 1.0044967e-38
-0.87444341 -0.16671044 1.794 1.0136448e-38
-0.87916166 -0.15727401 1.794 9.9527686e-39
-0.61598986 -0.072870292 1.794 7.0878391e-39
-0.61336863 -0.066055074 1.794 6.719065e-39
-0.60865039 -0.064482339 1.794 5.8925413e-39
-0.41677609 -0.04403672 1.794 3.0363111e-39
-0.78558362 -0.033813912 1.794 1.1963726e-39
-0.77614719 -0.033813912 1.794 0
-0.45452186 -0.033027541 1.794 1.4700854e-39
-0.43250349 -0.03460028 1.794 2.7586522e-39
-0.42621255 -0.03460028 1.794 2.7586522e-39
-0.41887307 -0.036173023 1.794 3.0352349e-39
-0.78479731 -0.028309319 1.794 3.6734198e-40
-0.77536082 -0.029882062 1.794 0
-0.48597667 0.053997409 1.794 5.1528337e-39
-0.47496748 0.055045899 1.794 5.2435916e-39
-0.46395832 0.055045899 1.794 5.1517561e-39
-0.45452186 0.055045899 1.794 5.1510386e-39
-0.44508541 0.055045899 1.794 5.1517561e-39
-0.43564901 0.057142891 1.794 5.2435916e-39
-0.42621255 0.058191381 1.794 5.2432329e-39
-0.27522951 0.056618642 1.794 6.3513615e-39
-0.26789007 0.057142884 1.794 7.0932453e-39
-0.28529504 0.062595062 1.794 6.4413991e-39
-0.27522951 0.06133686 1.794 6.3481287e-39
-0.26736581 0.06133686 1.794 6.3535097e-39
-0.80591691 0.17637156 1.794 3.6845434e-39
-0.79344738 0.17614688 1.794 2.7615277e-39
-0.78636998 0.17614688 1.794 2.6682516e-39
-0.77536082 0.17457414 1.794 2.1125751e-39
-0.58663201 0.18086509 1.794 4.2290963e-39
-0.64718252 0.30904341 1.794 0
-0.64482343 0.31612074 1.7940001 0
-0.63460058 0.31769347 1.794 0
-0.64639616 0.3255572 1.794 0
-0.77536082 0.33499363 1.794 0
-0.63695967 0.33499363 1.794 0
-0.76435161 0.34128457 1.794 0
-0.63695967 0.34443006 1.794 0
-0.63695967 0.35701197 1.794 0
-0.63695967 0.36015746 1.794 0
-0.91885537 -0.70377052 1.8040003 9.4021199e-39
-0.91727388 -0.69586289 1.8040001 1.0418068e-38
0.87457317 -0.64578193 1.8040003 6.4551388e-39
0.8819536 -0.64156455 1.8040003 6.0878024e-39
-0.8919698 -0.58199441 1.8040001 1.2074704e-38
-0.91885537 -0.5740869 1.8040001 1.1892478e-38
-0.90575153 -0.57318324 1.8040001 1.207507e-38
-0.89987731 -0.57092392 1.8040001 1.1247106e-38
-0.92729014 -0.56459796 1.8040003 1.2443487e-38
-0.90683585 -0.56523049 1.8040001 1.1704853e-38
-0.91727388 -0.55669034 1.8040001 1.1430784e-38
-0.56617939 -0.49817461 1.8040001 9.5886734e-39
-0.4507294 -0.46021843 1.8040001 6.2689497e-39
-0.44440338 -0.46654445 1.8040001 7.0976356e-39
-0.50529134 -0.45468318 1.8040001 6.173852e-39
-0.4950116 -0.45231092 1.8040001 5.2504608e-39
-0.48552251 -0.45072943 1.8040003 4.6980143e-39
