# .PCD v0.7 - Point Cloud Data file format
VERSION 0.7
FIELDS x y z rgb
SIZE 4 4 4 4
TYPE F F F F
COUNT 1 1 1 1
WIDTH 962
HEIGHT 1
VIEWPOINT 0 0 0 1 0 0 0
POINTS 962
DATA ascii
-0.71417588 -0.43169808 1.3002231 4.3202494e-39
-0.66590142 -0.39884993 1.3052247 5.0552739e-39
-0.68666607 -0.37860614 1.290306 8.017787e-39
-0.68711132 -0.33658484 1.274539 9.0323005e-39
-0.67436922 -0.28923404 1.2614919 9.4929185e-39
-0.66989046 -0.23349231 1.2423835 9.9538966e-39
-0.61977732 -0.38950855 1.3181913 4.8694463e-39
-0.6238457 -0.32283479 1.2919765 8.9375825e-39
-0.63360012 -0.26893845 1.2684811 1.004465e-38
-0.62922901 -0.22265735 1.2528484 1.0321239e-38
-0.58990753 -0.26826295 1.2838004 9.9520932e-39
-0.57753837 -0.21956527 1.2701199 1.0504191e-38
-0.51537859 -0.21717317 1.2913818 1.1425064e-38
-0.54805291 -0.26337689 1.2969002 1.0136487e-38
-0.47540116 -0.21493624 1.3047968 1.105592e-38
-0.58855546 0.26241654 1.0871685 2.0649663e-38
-0.57261622 0.31273437 1.0741584 2.0926249e-38
-0.56596333 0.37881681 1.0519837 2.0557825e-38
-0.52239829 0.33920303 1.082222 2.1756368e-38
-0.52430868 0.3986195 1.0594717 2.1571975e-38
-0.47927195 0.38624677 1.0801163 2.1664175e-38
-0.66583616 -0.18593954 1.2261653 1.0783301e-38
-0.65973896 -0.13787583 1.2104853 1.2074399e-38
-0.6189751 -0.072579749 1.2007581 1.4378205e-38
-0.63041675 -0.15954241 1.2289821 1.1613056e-38
-0.6340161 -0.10889036 1.2088856 1.3272579e-38
-0.57796276 -0.17043243 1.251719 1.19804e-38
-0.57877147 -0.11655125 1.2314173 1.3915786e-38
-0.64235812 -0.036699057 1.1790984 1.5854417e-38
-0.59321719 -0.025396343 1.1924112 1.6867847e-38
-0.5216139 -0.17946 1.2751518 1.2347023e-38
-0.52383536 -0.12353785 1.2535889 1.4467881e-38
-0.45673135 -0.17234816 1.2956312 1.2899834e-38
-0.47215551 -0.11423194 1.2685483 1.5112889e-38
-0.5503217 -0.067012556 1.2231549 1.5667503e-38
-0.54358304 -0.012052138 1.2051418 1.7881277e-38
-0.49300697 -0.05575278 1.2393966 1.6496541e-38
-0.47693452 -0.00096182449 1.2247727 1.8986902e-38
-0.62422061 0.010618513 1.1679862 1.7606851e-38
-0.62538862 0.061973121 1.1484947 1.7698688e-38
-0.58872747 0.042921297 1.1686355 1.8620282e-38
-0.58760655 0.082577355 1.1543052 1.9265651e-38
-0.60773718 0.1180686 1.1339492 1.9542958e-38
-0.60337031 0.19744003 1.1060237 2.0004295e-38
-0.56975168 0.12788175 1.1438402 2.0649304e-38
-0.57747489 0.18486102 1.1199238 2.0926249e-38
-0.53587264 0.035820495 1.1901078 1.9264931e-38
-0.52853388 0.087566875 1.1735023 2.0556028e-38
-0.48784003 0.065517336 1.1961936 2.0555307e-38
-0.53285903 0.12353681 1.1586007 2.1017367e-38
-0.53615344 0.1751968 1.1382382 2.1386508e-38
-0.47628242 0.12840284 1.1769543 2.1570179e-38
-0.48635319 0.17238241 1.1570299 2.1847485e-38
-0.54012638 0.21882221 1.1206185 2.1663453e-38
-0.53995925 0.27762273 1.0988374 2.1756009e-38
-0.48179907 0.23052907 1.137055 2.2400658e-38
-0.48017949 0.30717966 1.1091613 2.2493574e-38
-0.43849447 -0.22190765 1.320538 7.8110647e-39
-0.39245477 -0.20713989 1.3314588 7.8096213e-39
0.039680012 -0.19286548 1.4801474 1.3443631e-38
-0.41907519 0.400877 1.096133 1.4566202e-38
-0.41933268 -0.13021743 1.2933092 1.4558992e-38
-0.44574285 -0.073419929 1.2628013 1.6311068e-38
-0.43715924 -0.019460354 1.2458175 1.8616677e-38
-0.38752809 -0.055546694 1.2769073 1.7232301e-38
-0.37451345 -0.0076024947 1.2637367 1.916949e-38
-0.33245313 -0.039182551 1.2904549 1.8430123e-38
-0.34441745 -0.078956924 1.3009651 1.6217789e-38
-0.29063106 -0.040523231 1.3058559 1.7875867e-38
-0.2760376 -0.0093476474 1.2994765 1.8983296e-38
-0.44507971 0.034555268 1.2229316 2.000141e-38
-0.4362618 0.088530824 1.2060254 2.1016282e-38
-0.39312381 0.042999588 1.2383095 2.0461668e-38
-0.37744209 0.10203623 1.2219694 2.1661291e-38
-0.43656245 0.16869903 1.1761408 2.2215547e-38
-0.4003852 0.17227422 1.1877046 2.2584328e-38
-0.34325239 0.028670188 1.2614037 2.0276195e-38
-0.32991093 0.082047507 1.2463315 2.1568015e-38
-0.27693984 0.03106433 1.2841448 1.9906332e-38
-0.26405048 0.084824912 1.2687691 1.9906336e-38
-0.34525558 0.14160155 1.218743 2.2399215e-38
-0.3480489 0.17828575 1.2041216 2.2768359e-38
-0.29141369 0.13605063 1.2399912 2.2306301e-38
-0.28753558 0.18466885 1.2233146 2.2860193e-38
-0.1999997 -0.030253734 1.3343378 1.1119298e-38
-0.22873513 -0.0060826801 1.31512 1.8336845e-38
-0.1784123 -0.043946289 1.3471164 9.9218377e-39
-0.14853254 -0.022122443 1.349658 1.0197704e-38
-0.060735535 -0.061000329 1.395385 9.3708219e-39
-0.090451658 -0.015096098 1.367745 9.9214734e-39
-0.22580828 0.063048221 1.2904854 1.8613433e-38
-0.24816434 0.13543196 1.2556328 2.2028992e-38
-0.22042693 0.18243521 1.2480583 2.2952027e-38
-0.17800303 0.13442762 1.2810076 2.1843519e-38
-0.17705172 0.19636558 1.2583406 2.2582885e-38
-0.14020635 0.16963844 1.2813978 2.2397413e-38
-0.098502204 0.16867502 1.2966169 2.202755e-38
-0.17819864 0.035205849 1.3177927 1.8520874e-38
-0.185118 0.075447462 1.3003796 1.7874785e-38
-0.12466571 0.024212195 1.3409525 1.1948345e-38
-0.14026622 0.087853335 1.3117546 1.8890376e-38
-0.091637194 0.10768227 1.3217182 2.0181837e-38
-0.42982307 0.24439093 1.1504277 2.240066e-38
-0.42418334 0.29686517 1.1329466 1.2260227e-38
-0.37723133 0.24529997 1.1688311 2.3046031e-38
-0.39453194 0.28284633 1.1487198 2.0372001e-38
-0.43551636 0.32848543 1.1171632 2.0373082e-38
-0.39104229 0.33335811 1.1312015 1.3826831e-38
-0.38192749 0.39068964 1.1131544 1.6409031e-38
-0.32635355 0.23561385 1.190559 2.3138223e-38
-0.33688918 0.31092456 1.1588315 1.9449685e-38
-0.27818787 0.27548462 1.1929133 2.2953838e-38
-0.31618348 0.3338947 1.1576779 1.391795e-38
-0.33399934 0.3994911 1.1269644 1.3089631e-38
-0.26569188 0.3246325 1.1791109 1.1983282e-38
-0.28354436 0.36722133 1.1569302 2.0557119e-38
-0.39264247 0.43051738 1.0945427 2.0742589e-38
-0.31377861 0.43700677 1.1202354 2.0834426e-38
-0.25878596 0.41629928 1.1475235 1.2259512e-38
-0.24945959 0.22657216 1.2213186 2.3229697e-38
-0.22162378 0.31355146 1.1989304 1.7880917e-38
-0.19563898 0.24574921 1.2333742 2.3229696e-38
-0.18230103 0.29278269 1.2206573 2.1477626e-38
-0.22536431 0.34127343 1.1873006 1.1336116e-38
-0.23401451 0.38117635 1.1693966 2.0925182e-38
-0.18290892 0.37200597 1.1910144 2.2492501e-38
-0.13006796 0.23138779 1.2620747 2.2859474e-38
-0.13414234 0.27844128 1.2431453 2.2952393e-38
-0.078856915 0.22766788 1.2817054 2.2490332e-38
-0.077555023 0.2684291 1.2670293 2.2675086e-38
-0.14550722 0.3355431 1.217886 2.3137865e-38
-0.11738123 0.38662535 1.2089348 2.2768723e-38
-0.090185061 0.33866358 1.2364409 2.2860559e-38
-0.067793764 0.39589468 1.2231622 2.2399584e-38
-0.21711621 0.43291745 1.1561997 1.6039174e-38
-0.17361303 0.4370814 1.1701554 2.1018094e-38
-0.13083939 0.43033329 1.1879042 2.2492858e-38
-0.087054804 0.44839299 1.1967988 2.2216273e-38
0.0041327653 -0.12645914 1.4428142 1.6301332e-38
-0.047551844 0.14668381 1.3229413 2.1288906e-38
-0.025876436 0.19260554 1.3136084 2.147438e-38
0.0091800466 0.13790518 1.3464185 1.2965738e-38
0.02231206 0.19935267 1.3282741 2.082865e-38
0.055544954 0.13730374 1.3631638 1.0014392e-38
0.070302024 0.18233952 1.3516946 1.2132739e-38
0.09690284 0.13893782 1.3772948 9.0942421e-39
0.11849626 0.18380196 1.3683251 1.0016916e-38
0.22333694 0.086257644 1.4419166 1.4640381e-38
0.1579735 0.18627457 1.3814745 9.0974805e-39
0.1554205 0.1353035 1.3994972 9.5562978e-39
0.20176375 0.12793624 1.4187481 1.0480772e-38
0.20298365 0.18367979 1.3984776 9.6495752e-39
0.28429821 0.065262616 1.4714383 1.409009e-38
0.2688407 0.08955083 1.4569086 1.5196436e-38
0.31688446 0.080020592 1.4775689 1.4828374e-38
0.29281589 0.12617317 1.4518493 1.5288627e-38
0.2491097 0.16042809 1.4235511 1.0389302e-38
0.32925278 0.13389364 1.4619659 1.4920573e-38
0.34633335 0.036730014 1.5041424 1.5196437e-38
-0.033717271 0.26094869 1.2854292 2.2213748e-38
0.0027931246 0.27172258 1.2944378 2.1937164e-38
-0.047134306 0.32251889 1.2577785 2.2491418e-38
-0.034173697 0.37661904 1.2423024 2.2307388e-38
0.018525522 0.32973665 1.2784953 2.2121916e-38
0.01224244 0.37059045 1.2610819 2.2214834e-38
0.063000157 0.36407986 1.2815875 2.1753498e-38
0.052817747 0.23249476 1.3268347 2.045987e-38
0.058070242 0.29141688 1.3068205 2.1475468e-38
0.1145895 0.27422222 1.3333478 2.0368039e-38
0.12031081 0.32361779 1.3170394 2.0830103e-38
0.11283266 0.379585 1.2935861 2.1292886e-38
-0.037154783 0.44913858 1.2143036 2.212336e-38
0.0025715695 0.45263034 1.2271631 2.1846773e-38
0.052336909 0.41738281 1.2579892 2.1569829e-38
0.053813398 0.46066636 1.2424383 2.1477996e-38
0.11983922 0.42311379 1.2799147 2.1201052e-38
0.11990979 0.46609721 1.2639743 2.1109218e-38
0.19167346 0.28715786 1.3560117 9.833619e-39
0.22317274 0.30213845 1.361672 1.0109487e-38
0.18012708 0.32834733 1.3365979 2.0092182e-38
0.17088805 0.37709486 1.3151989 2.0646797e-38
0.22798198 0.36244828 1.3409846 1.9631568e-38
0.23220181 0.39503017 1.3303862 1.9816682e-38
0.27811629 0.30290788 1.3809652 8.5450382e-39
0.32657993 0.2970832 1.4003989 8.3613742e-39
0.26145533 0.34077156 1.3609642 1.103325e-38
0.3182506 0.34006271 1.3814666 8.5472102e-39
0.31531173 0.38319397 1.3643987 1.0575154e-38
0.17697453 0.43598932 1.2954924 2.0832635e-38
0.16550425 0.48185393 1.2743691 2.0741159e-38
0.20589979 0.4675487 1.2940775 2.0465296e-38
0.25516146 0.43001243 1.3255742 1.9541541e-38
0.25735053 0.48995444 1.3040895 2.009688e-38
0.31076497 0.43483555 1.3435969 1.7972419e-38
0.31453824 0.49498138 1.3226012 1.9266766e-38
0.36885008 0.072739534 1.4987912 1.4736185e-38
0.37262991 0.12522374 1.4806434 1.5104969e-38
0.41166654 0.0093713757 1.5375859 1.4828019e-38
0.45646718 -0.010376897 1.5608858 1.4919859e-38
0.50287712 -0.020582329 1.5812144 1.4367048e-38
0.41920704 0.038790781 1.5293455 1.4366685e-38
0.41820484 0.098254532 1.5069015 1.427521e-38
0.47778404 0.029847465 1.5535412 1.4736551e-38
0.46586192 0.080267698 1.5305649 1.3537647e-38
0.52871102 0.022944247 1.5742531 1.436777e-38
0.51046699 0.081072018 1.5461612 1.4090824e-38
0.56472725 0.020275479 1.5880787 1.399971e-38
0.55846786 0.072176024 1.5665704 1.4183741e-38
0.60173959 0.054353386 1.5886103 1.4276659e-38
0.37324324 0.32642499 1.4061286 7.9947567e-39
0.42317271 0.30952701 1.4301975 8.2724226e-39
0.35212669 0.37952876 1.378879 8.2731428e-39
0.42601401 0.3371653 1.4209441 8.1802283e-39
0.41263044 0.39088532 1.3962213 7.5366554e-39
0.49061942 0.29020318 1.4614094 1.6122348e-38
0.53277063 0.29695052 1.4739239 1.4094424e-38
0.46063873 0.34878287 1.4289672 7.721411e-39
0.46619454 0.39228073 1.4147904 7.2600685e-39
0.51611078 0.31755662 1.4603331 1.2710409e-38
0.52291268 0.38994217 1.4358704 7.3537033e-39
0.38429797 0.50373971 1.3442069 1.7790194e-38
0.43485916 0.4839128 1.3695887 9.6611289e-39
0.4597367 0.49372247 1.37481 9.0157553e-39
0.50443482 0.48720998 1.393157 7.0778408e-39
0.50621557 0.52009463 1.3815771 7.6313747e-39
0.58010656 0.27022004 1.5007206 1.0769267e-38
0.56682116 0.34136102 1.4695621 1.2527463e-38
0.59453505 0.40746528 1.4548843 9.2926855e-39
0.6258105 0.34023723 1.4910002 1.2343437e-38
0.62733197 0.39264357 1.4720768 1.1236364e-38
0.66896874 0.39235163 1.4870224 1.1605865e-38
0.56043297 0.49948707 1.4085518 6.6175844e-39
0.62467641 0.49623719 1.432652 6.8034133e-39
0.55957544 0.53257889 1.3959546 6.8034147e-39
0.61474693 0.5343684 1.4149503 6.527188e-39
0.66906583 0.49551472 1.4487385 6.9888822e-39
0.66639692 0.53112799 1.4345591 6.7119366e-39
0.61337239 0.29520616 1.503294 1.2434191e-38
0.66375601 0.29739246 1.5204359 1.2527108e-38
0.7078113 0.28589666 1.5404049 1.2435989e-38
0.6995995 0.34829998 1.5143 1.2159763e-38
0.72801828 0.39672562 1.5064398 1.188246e-38
0.76245356 0.28035003 1.5619367 1.3173915e-38
0.74398077 0.33375454 1.5355178 1.2712936e-38
0.70607787 0.50642806 1.4578739 6.989566e-39
0.64327651 0.55636466 1.4169463 6.1598474e-39
0.60296988 0.55407077 1.4034351 6.3428079e-39
0.58716607 0.55270803 1.3983099 6.5264523e-39
0.53419065 0.54533637 1.3821702 7.5406225e-39
0.51549381 0.54390866 1.3760378 8.3696839e-39
0.45742622 0.5331437 1.3593441 1.6222872e-38
0.4248462 0.53188407 1.3482022 1.714555e-38
0.40756351 0.53005654 1.3427225 1.742394e-38
0.38497105 0.52640468 1.336028 1.862176e-38
0.35757893 0.52171934 1.3280072 1.8438451e-38
0.33660209 0.52079946 1.3208737 1.9821023e-38
0.31520715 0.51949763 1.3137332 1.9822101e-38
0.27358806 0.51235855 1.301554 2.046567e-38
0.25523737 0.51110244 1.2954814 1.9820652e-38
0.2273839 0.5087567 1.2864273 2.0281983e-38
0.21417193 0.50614351 1.2826897 2.0374183e-38
0.18616022 0.50169826 1.274359 2.0649324e-38
0.15652868 0.50001037 1.2644267 2.0649683e-38
0.13271873 0.49549973 1.2576175 2.1293972e-38
0.09721233 0.49125004 1.2465433 2.0649317e-38
0.077309906 0.48972815 1.2400165 2.1202129e-38
0.036952801 0.48249736 1.2283212 2.1478713e-38
0.00306253 0.48206842 1.2164037 2.1755295e-38
-0.012609864 0.48074117 1.2113118 2.1570906e-38
-0.031240432 0.47881442 1.2053884 2.1663102e-38
-0.058208294 0.47406682 1.197542 2.1755656e-38
-0.083473429 0.47143617 1.1895159 2.2032237e-38
-0.098527342 0.46968511 1.1848019 2.2124073e-38
-0.11219297 0.46836227 1.1804235 2.2492141e-38
-0.15311229 0.46179065 1.168283 2.2400301e-38
-0.18689024 0.45960385 1.1570584 2.1294319e-38
-0.23508291 0.45245108 1.1425419 2.1203568e-38
-0.25492978 0.45112547 1.1359618 2.1387237e-38
-0.28832394 0.44528061 1.1262329 2.1663466e-38
-0.31598347 0.4432185 1.1171424 2.2032605e-38
-0.3315146 0.44167575 1.1121811 2.1665263e-38
-0.34134725 0.4404417 1.1091353 2.1479076e-38
-0.36618334 0.43645957 1.1017643 2.175566e-38
-0.3852376 0.43417785 1.0958217 2.1756735e-38
-0.4018383 0.43323931 1.0902548 2.1847855e-38
-0.41440627 0.43268043 1.0859839 2.1848572e-38
-0.45743632 0.42588252 1.0731752 2.2217346e-38
-0.47601035 0.42379642 1.0673312 2.1848925e-38
-0.49479184 0.42232686 1.0611842 2.2124792e-38
-0.50658661 0.4216269 1.0572412 2.1664531e-38
-0.53724247 0.41474766 1.0488722 2.1019157e-38
-0.56474978 0.41323581 1.0396316 2.0004287e-38
-0.57396495 0.38354132 1.0473773 2.0557828e-38
-0.59147775 0.32575685 1.0626 2.0833691e-38
-0.60089242 0.27233905 1.0790865 2.0187972e-38
-0.60244632 0.2545568 1.0851377 2.0189046e-38
-0.60423946 0.23511934 1.0917184 1.9820267e-38
-0.61186349 0.20306663 1.1009071 1.9819186e-38
-0.61435002 0.18587518 1.1064068 1.954368e-38
-0.62061602 0.15647247 1.115095 1.9081984e-38
-0.62550825 0.10409452 1.1328068 1.8620642e-38
-0.63284314 0.074111506 1.1413296 1.7514296e-38
-0.63518357 0.05488646 1.1476367 1.714552e-38
-0.64293724 0.016953373 1.1589634 1.7607214e-38
-0.65010339 -0.011960406 1.1671495 1.6777456e-38
-0.65368271 -0.04280204 1.1773294 1.5761508e-38
-0.66301274 -0.091606222 1.1921325 1.308963e-38
-0.66883385 -0.12149383 1.2011595 1.2535385e-38
-0.67238063 -0.14759822 1.2095917 1.1890368e-38
-0.67412919 -0.16449948 1.2152463 1.1429391e-38
-0.68225574 -0.20668815 1.2280209 1.0506709e-38
-0.68428999 -0.22400878 1.2337296 9.7698697e-39
-0.69244736 -0.2664583 1.2465899 9.5840407e-39
-0.70074826 -0.30695605 1.2586744 8.8475477e-39
-0.70178598 -0.316596 1.261885 8.5713209e-39
-0.70985031 -0.35569844 1.2735354 8.6638739e-39
-0.7112571 -0.36767659 1.2774833 8.2043349e-39
-0.71231508 -0.37761387 1.2807975 8.2958186e-39
-0.71388215 -0.40667626 1.2910339 8.0192247e-39
-0.67271948 -0.41612694 1.3092122 4.7797674e-39
-0.62408125 -0.416904 1.3268332 4.4102604e-39
-0.60502034 -0.40229878 1.3282006 4.6850452e-39
-0.53677237 -0.27307186 1.304521 9.678023e-39
-0.4378235 -0.2474124 1.3302504 7.2593342e-39
-0.3724876 -0.22668296 1.3458332 7.6259503e-39
-0.36493629 -0.20526564 1.3405689 7.9007492e-39
-0.28273612 -0.066485658 1.3183126 1.6679846e-38
-0.18902199 -0.05181735 1.3462594 9.6466956e-39
-0.15008914 -0.048936769 1.359063 9.2771942e-39
-0.13146478 -0.047882989 1.3653084 9.0002444e-39
-0.015695827 -0.10240172 1.4268125 1.6300604e-38
0.011152186 -0.17663948 1.4639544 9.3895573e-39
0.03691322 -0.21414459 1.4870651 1.2890835e-38
0.062271688 -0.21570612 1.4966816 1.5655968e-38
0.048867498 -0.18686083 1.4811908 1.3166327e-38
0.017677823 -0.14360568 1.4540099 1.6209495e-38
-0.0076924339 -0.10608801 1.4310337 1.6668672e-38
-0.046428803 -0.047965921 1.3956416 1.0842358e-38
0.052217461 0.11834462 1.3690201 9.830368e-39
0.097764291 0.12215124 1.3838369 8.7268987e-39
0.17371538 0.1035645 1.4178056 9.1911068e-39
0.22816753 0.082953773 1.4448651 1.4826586e-38
0.26807356 0.056375895 1.4689575 1.1875237e-38
0.32101029 0.031146038 1.4971929 1.5474092e-38
0.3715924 0.0052758008 1.5248269 1.3998634e-38
0.43721688 -0.017767319 1.556771 1.5105695e-38
0.52442765 -0.045004845 1.5979654 1.1414602e-38
0.58858013 0.012115404 1.5996096 1.446286e-38
0.62179226 0.061613519 1.5930593 1.510677e-38
0.60388303 0.074446648 1.5819106 1.2617503e-38
0.66636091 0.26675597 1.5327438 9.7590797e-39
0.70508569 0.26453805 1.5473671 1.1142729e-38
0.74662471 0.26522058 1.561916 1.3266475e-38
0.77543557 0.27341196 1.5691401 1.3818204e-38
0.77379072 0.29970711 1.558787 1.3359031e-38
0.76586783 0.33035707 1.5445791 1.2989153e-38
0.75617278 0.38254139 1.521741 1.1884254e-38
0.75452489 0.39893651 1.5150642 1.3359404e-38
0.74247622 0.43023053 1.4991469 1.1317409e-38
0.081133164 -0.25998718 1.5198504 1.5287907e-38
0.10629617 -0.29594344 1.5421728 1.5011319e-38
0.076637663 -0.28220007 1.5264992 7.1739573e-39
0.081191264 -0.24865374 1.5156615 1.5380463e-38
0.11286654 -0.28738952 1.5413368 1.51028e-38
0.11453459 -0.30614671 1.5488983 1.5841078e-38
0.10663132 -0.31184235 1.5481976 1.538046e-38
0.055066153 -0.095146932 0.83331442 1.508732e-38
0.034405742 -0.077421203 0.891581 1.5087673e-38
0.012483685 -0.06952209 0.93448544 1.6013938e-38
0.01548613 -0.047090489 0.9693898 1.5549367e-38
-0.070284709 0.0081091858 1.1793895 1.0843068e-38
-0.0072532296 -0.038996875 1.0137204 1.4071001e-38
-0.028854862 -0.028104246 1.0613898 1.2501871e-38
-0.049148012 -0.0072731506 1.1245527 1.2318927e-38
0.025297416 -0.01177616 1.0175666 1.4532694e-38
-0.0041994676 0.00044432207 1.0780569 1.4718887e-38
-0.043392908 0.038053423 1.1954979 1.4258988e-38
-0.026783785 0.019410297 1.1410375 1.4626695e-38
-0.071446173 0.04865792 1.2512624 1.3521787e-38
-0.078664616 0.072685272 1.3025506 1.6119117e-38
-0.044163365 0.093165644 1.2921079 1.2322521e-38
0.087892443 -0.14861906 0.6968438 1.5367879e-38
0.1251779 -0.1109939 0.71242708 1.3611834e-38
0.094244421 -0.12743047 0.72513014 1.5272072e-38
0.065965004 -0.11234702 0.78896403 1.5915997e-38
0.10428514 -0.093549035 0.77051598 1.4255757e-38
0.077046968 -0.075753123 0.83766723 1.480821e-38
0.056354508 -0.061476748 0.88999403 1.5084434e-38
0.049896847 -0.03204247 0.94964617 1.4163554e-38
-0.10559718 0.065757595 1.3264153 1.8247173e-38
-0.062151007 0.10035376 1.3285379 2.0278716e-38
-0.028540934 0.11183393 1.3036731 1.1118563e-38
-0.0345704 0.071978517 1.2425823 1.3797297e-38
-0.01385149 0.049755998 1.1764389 1.3799797e-38
-0.0044360058 0.032288525 1.1336008 1.3888046e-38
0.0053810035 0.023646498 1.1055343 1.3520341e-38
0.024275493 0.013077845 1.0620333 1.4444454e-38
0.033023626 0.0037214602 1.0341518 1.4533067e-38
0.045318056 -0.014845325 0.9855718 1.3147966e-38
0.055620626 -0.024536183 0.95503938 1.3427071e-38
0.067217968 -0.038764045 0.9149133 1.259624e-38
0.075955138 -0.048051324 0.88716626 1.324052e-38
0.092868209 -0.059722699 0.8443923 1.3980609e-38
0.10404763 -0.074843273 0.80327475 1.3241605e-38
0.11398298 -0.084337048 0.77357328 1.3244485e-38
0.14849539 -0.097531706 0.70471156 1.2600205e-38
0.11038724 -0.12981737 0.69948477 1.4258997e-38
0.087892443 -0.14861906 0.6968438 1.5367879e-38
0.074329525 -0.13936834 0.73095638 1.6663637e-38
0.065352112 -0.12911692 0.76069564 1.7393638e-38
0.05665547 -0.12074287 0.78680497 1.7118851e-38
0.044690456 -0.10939458 0.82242668 1.6114075e-38
0.033511594 -0.10153252 0.85095471 1.1876311e-38
0.024485435 -0.089319468 0.88416111 1.4174339e-38
0.014526216 -0.079844661 0.91386145 1.6298444e-38
-0.004417819 -0.060363792 0.97288531 1.8968174e-38
-0.021145215 -0.042297881 1.0265023 1.1024957e-38
-0.03917031 -0.026408779 1.0780727 9.9211217e-39
-0.051248975 -0.013074866 1.1172895 1.0011877e-38
-0.069380611 0.0033897774 1.1700001 1.1212197e-38
-0.083091326 0.018194206 1.2139416 1.1580654e-38
-0.090139188 0.031102275 1.2457178 1.2321804e-38
-0.11670315 0.055541448 1.3234924 1.7327741e-38
0.25929174 0.11356134 0.92321688 1.3800912e-38
0.23663175 0.12052176 0.96547645 1.398422e-38
0.18742588 0.15834346 1.0966247 1.2968259e-38
0.21817218 0.14827381 1.0382001 1.3800189e-38
0.23419651 0.18055862 1.0728455 1.2141392e-38
0.14448157 0.23198509 1.2815555 1.3434283e-38
0.18328899 0.1709823 1.1240559 1.3799462e-38
0.1629945 0.20043755 1.202178 1.3800182e-38
0.19705842 0.21986029 1.1904838 1.2417971e-38
0.21850766 0.20333388 1.1332464 1.1864437e-38
0.16813575 0.24477884 1.2722321 1.1771515e-38
0.13325539 0.2545411 1.3356311 1.7047575e-38
0.30740762 0.081574611 0.80364054 1.2513417e-38
0.3097685 0.056867115 0.75764406 1.2327593e-38
0.2772817 0.094204381 0.86567891 1.3340656e-38
0.30396482 0.11750424 0.87054157 1.103685e-38
0.3383027 0.072812937 0.74728614 1.094718e-38
0.32044393 0.095872499 0.81107092 1.1038654e-38
0.2843408 0.13470298 0.92651314 1.1221235e-38
0.26029748 0.15041371 0.98579192 1.1865528e-38
0.17138812 0.25871238 1.2920648 1.084885e-38
0.14678121 0.27205795 1.3479921 2.0092538e-38
0.10570636 0.23347285 1.3357923 1.8249008e-38
0.12050078 0.21989097 1.2925276 1.3890574e-38
0.14018854 0.19990492 1.2316364 1.4258984e-38
0.15596013 0.17924327 1.1747911 1.342384e-38
0.17215167 0.16192742 1.1231889 1.3330556e-38
0.184948 0.14864208 1.0831 1.2135982e-38
0.20548381 0.12935188 1.0222863 1.4162485e-38
0.22713114 0.11334185 0.96568066 1.4992614e-38
0.23712787 0.098982468 0.92745876 1.490546e-38
0.26584244 0.084797494 0.8646034 1.3799472e-38
0.27220675 0.077195883 0.84294093 1.3890598e-38
0.28723419 0.056098256 0.78633082 1.4901142e-38
0.30553877 0.034052242 0.72370988 1.3519656e-38
0.32435217 0.044098426 0.71607006 1.1498195e-38
0.34778124 0.074143417 0.73696637 1.0857154e-38
0.35511798 0.09244635 0.75893581 9.4770922e-39
0.3364554 0.10855278 0.81173241 1.0028098e-38
0.30866471 0.1270853 0.8808971 1.0761337e-38
0.29151314 0.14805068 0.94010782 9.744673e-39
0.27973929 0.16849548 0.99125141 1.0020164e-38
0.24975422 0.19063526 1.0695957 1.0757744e-38
0.23692386 0.19909719 1.1013644 1.1771171e-38
0.21555857 0.23823117 1.1976992 1.1031799e-38
0.19006135 0.25313139 1.2575089 1.0293133e-38
-0.14659204 -0.27524817 0.78960639 1.0483297e-38
-0.17189513 -0.27592129 0.82214797 9.7460925e-39
-0.21281084 -0.22996441 0.95636123 9.1061153e-39
-0.19461177 -0.25801396 0.88346863 9.1007259e-39
-0.20632364 -0.1705495 1.050765 1.1682915e-38
-0.19811562 -0.20837893 0.97422081 9.8534137e-39
-0.23124047 -0.16587654 1.0920639 1.1872348e-38
-0.12106802 -0.27631167 0.75375867 1.0943915e-38
-0.14590892 -0.25066736 0.83132786 1.2326493e-38
-0.17094435 -0.23039202 0.89984494 1.1868031e-38
-0.2478413 -0.15839349 1.1271578 1.3907119e-38
-0.24242751 -0.18427907 1.075051 1.077104e-38
-0.23040588 -0.22608517 0.98652935 7.9068714e-39
-0.22118592 -0.24281032 0.94523925 8.1798402e-39
-0.20503387 -0.25948068 0.89480913 7.9929532e-39
-0.1859532 -0.28169492 0.83086258 7.3526229e-39
-0.1745505 -0.29666534 0.78970802 7.3518998e-39
-0.15823217 -0.29917288 0.76361966 8.9163374e-39
-0.13501407 -0.29226798 0.74466383 1.094465e-38
-0.11222643 -0.28469196 0.72744548 1.1404533e-38
-0.096303485 -0.27507132 0.72291845 1.0391458e-38
-0.10762846 -0.26089483 0.76259255 1.0484012e-38
-0.11616551 -0.25571981 0.78294098 1.1036466e-38
-0.13302442 -0.23815198 0.83586925 1.177583e-38
-0.14418177 -0.21733829 0.88683134 1.2513042e-38
-0.15550049 -0.20515083 0.92304748 1.2421199e-38
-0.17578138 -0.19271161 0.97163963 1.0595658e-38
-0.18639708 -0.18238179 1.0036974 1.1960228e-38
-0.19604762 -0.16142501 1.0529003 1.1774029e-38
-0.2142341 -0.14648749 1.1030352 1.1131907e-38
-0.24310939 -0.15383691 1.1287565 1.2336555e-38
-0.40227708 -0.36793646 0.96947759 7.2643747e-39
-0.69069755 -0.40625143 1.2872612 6.8221235e-39
-0.65766156 -0.38047776 1.2879509 6.727044e-39
-0.61290675 -0.38045064 1.2283754 4.4088283e-39
-0.52117395 -0.31288889 1.2233443 6.1591145e-39
-0.61813748 -0.34882602 1.290192 7.095109e-39
-0.55347097 -0.29953229 1.2895353 7.924155e-39
-0.47651085 -0.37987384 1.0476686 4.5921419e-39
-0.43491575 -0.37276313 1.0045879 6.4356944e-39
-0.44860801 -0.34933484 1.0634615 6.8037581e-39
-0.46854782 -0.34883773 1.0908877 6.6197255e-39
-0.48464838 -0.33474439 1.1367795 6.250943e-39
-0.49272713 -0.31446204 1.1827188 6.8044741e-39
-0.51214731 -0.29044467 1.250245 6.8055587e-39
-0.50649863 -0.2576189 1.299651 8.9404692e-39
-0.42267454 -0.19049266 1.3044004 1.0319801e-38
-0.39063016 -0.16519457 1.3055863 1.1518706e-38
-0.35737246 -0.15699641 1.2754987 8.7305e-39
-0.37216434 -0.15027398 1.3068635 1.3360812e-38
-0.4682312 -0.28960505 1.1931958 7.4469414e-39
-0.46557471 -0.3035011 1.1655564 7.3558556e-39
-0.45312282 -0.31779328 1.1241802 7.6302873e-39
-0.43468684 -0.32660952 1.0843292 7.6320754e-39
-0.41791862 -0.34949803 1.0222939 6.710489e-39
-0.39467502 -0.36483294 0.96473265 7.2650992e-39
-0.39713609 -0.37209386 0.95541835 7.4484072e-39
-0.41650763 -0.38062185 0.9664346 6.6204458e-39
-0.44332835 -0.38936052 0.98700953 6.8055503e-39
-0.47275129 -0.39048696 1.0242532 4.8708938e-39
-0.48853734 -0.3708747 1.0792979 4.8672813e-39
-0.50433159 -0.35193595 1.1331855 4.6839732e-39
-0.6675716 -0.39886391 1.2692653 4.5946615e-39
-0.71497279 -0.42505717 1.2869852 6.45442e-39
-0.69782609 -0.40953326 1.2910661 6.9161142e-39
-0.60155827 -0.3302837 1.300264 7.7433665e-39
-0.55611449 -0.29346988 1.3035715 8.480926e-39
-0.51577663 -0.26132932 1.3055761 9.3096034e-39
-0.44362441 -0.20556875 1.3061627 1.0135764e-38
-0.39446485 -0.16745856 1.3067684 1.1245714e-38
-0.37875658 -0.15252547 1.311741 1.2258063e-38
0.46421888 0.30656347 0.98494464 1.0677079e-38
0.45718375 0.32255405 1.0220501 1.0954749e-38
0.44148389 0.34396541 1.0801003 1.1230977e-38
0.40856677 0.34011915 1.1172818 1.09497e-38
0.47447285 0.35148051 1.049186 8.3721866e-39
0.41011205 0.37079823 1.1684315 1.1505396e-38
0.43872195 0.37266523 1.1335553 9.8462377e-39
0.42653021 0.40793821 1.2109728 7.9994454e-39
0.37553424 0.42371708 1.306276 1.0583434e-38
0.36857271 0.43849295 1.3411766 1.3544158e-38
0.38810667 0.39557692 1.2407219 1.1504674e-38
0.42789268 0.41978937 1.2297118 7.0767772e-39
0.36516231 0.44461983 1.356346 1.751145e-38
0.33928615 0.42029601 1.3486325 1.6776768e-38
0.35605043 0.40292799 1.2961768 1.168942e-38
0.36724809 0.37617281 1.2348565 1.1869121e-38
0.38641998 0.36334327 1.1870646 1.1597585e-38
0.39688936 0.34677875 1.1443887 1.1593259e-38
0.4251669 0.3208614 1.0617675 1.1407803e-38
0.44534129 0.29428318 0.98879522 1.0392923e-38
0.46249974 0.29772821 0.97191149 1.0771074e-38
0.47050625 0.30672267 0.97684473 1.077143e-38
0.48217186 0.32621562 0.99511123 9.9406053e-39
0.48999703 0.34614027 1.0192428 8.3747089e-39
0.47775733 0.36572772 1.0695199 7.4480583e-39
0.46761236 0.38220522 1.111613 6.7112163e-39
0.43875143 0.40795642 1.1947231 6.8927391e-39
-0.26936138 -0.097217999 1.2619267 1.0852433e-38
-0.28320959 -0.088858403 1.2948736 1.2246183e-38
-0.25804642 -0.093904346 1.2525997 1.1864433e-38
-0.28356022 -0.077080026 1.3157685 1.4378578e-38
-0.30670556 -0.095565699 1.3145423 1.5021405e-38
-0.29776305 -0.10043947 1.2941762 9.8443908e-39
-0.27682325 -0.10141648 1.2645857 1.131342e-38
-0.26666206 -0.10088115 1.2519773 1.0945348e-38
-0.25511259 -0.096853346 1.2435766 1.2047746e-38
-0.085312828 -0.27969542 0.711097 1.0669125e-38
-0.088627428 -0.26546198 0.75316852 1.0943555e-38
-0.063258447 -0.27375144 0.72926831 1.048366e-38
-0.055391055 -0.26030844 0.76928568 1.1219422e-38
-0.12030567 -0.24527341 0.81214952 1.1590724e-38
-0.13308047 -0.22000973 0.88664734 1.2788904e-38
-0.092152223 -0.24259859 0.82079458 1.2326851e-38
-0.086940311 -0.22849956 0.86268699 1.2788187e-38
-0.015582715 -0.24693131 0.80992824 1.1404892e-38
-0.032889016 -0.23393908 0.84796423 1.2326491e-38
-0.082335323 -0.21648364 0.89839393 1.3155532e-38
-0.032644436 -0.21290821 0.9102596 1.2508722e-38
-0.16993964 -0.19526491 0.95898992 1.0780053e-38
-0.14112346 -0.1970727 0.95437557 1.2518442e-38
-0.084184207 -0.19860028 0.95131326 1.3062254e-38
-0.013015985 -0.20073588 0.94681561 1.1308372e-38
-0.20171332 -0.17690369 1.0125561 1.1224825e-38
-0.22787252 -0.13430455 1.1380543 1.4921633e-38
-0.24543038 -0.090224102 1.2681607 1.1217611e-38
-0.23297538 -0.11057421 1.2082078 1.3714099e-38
-0.23288421 -0.082253724 1.2920896 1.0476452e-38
-0.17454527 -0.17927288 1.0062368 1.1870911e-38
-0.18136494 -0.16181372 1.057772 1.2416167e-38
-0.1336772 -0.18052249 1.0035852 1.3154087e-38
-0.14404687 -0.16275004 1.0559572 1.2781706e-38
-0.19532077 -0.14367919 1.1111245 1.2324689e-38
-0.19203131 -0.12632036 1.1626225 1.2507278e-38
-0.13515139 -0.14364555 1.1127692 1.2505833e-38
-0.13624957 -0.12326018 1.1731185 1.2041618e-38
-0.085211873 -0.17922218 1.0086809 1.2690951e-38
-0.086700678 -0.16201001 1.0596216 1.2227809e-38
-0.034693804 -0.18117276 1.0042009 1.1213298e-38
-0.029441843 -0.16248661 1.0596805 1.047501e-38
-0.087554336 -0.14154737 1.1202059 1.167248e-38
-0.083961628 -0.12723766 1.1626806 1.1208621e-38
-0.018567834 -0.14287536 1.1180441 8.5460989e-39
-0.02931135 -0.1280847 1.1615752 9.0967574e-39
-0.17972134 -0.10995727 1.2114025 1.195086e-38
-0.17476939 -0.095136032 1.2554271 1.1302253e-38
-0.11048493 -0.10860921 1.2171732 1.1024944e-38
-0.13022476 -0.093922392 1.2601657 1.0749433e-38
-0.17728962 -0.075933732 1.3122358 9.7378024e-39
-0.12769464 -0.078175902 1.3068683 9.4612183e-39
-0.044280767 -0.11295514 1.2060015 9.1885929e-39
-0.067293413 -0.094769046 1.2592741 9.2789836e-39
-0.072316878 -0.078181408 1.308274 8.5417829e-39
-0.09221673 -0.068695188 1.3358595 8.0818824e-39
0.016507966 -0.22618356 0.87220299 1.0573687e-38
0.041893404 -0.21836245 0.89601934 9.5609753e-39
0.040517725 -0.2010567 0.94724011 8.9177639e-39
0.025127282 -0.18245204 1.0019481 8.9184814e-39
0.013346119 -0.16284795 1.0597088 8.5496961e-39
-0.085312828 -0.27969542 0.711097 1.0669125e-38
-0.096195407 -0.26951334 0.74097478 1.066733e-38
-0.11480273 -0.25168931 0.79328823 1.1313059e-38
-0.13477306 -0.23422846 0.84449077 1.1869104e-38
-0.14471969 -0.21700664 0.89524293 1.2605229e-38
-0.16391073 -0.19951808 0.94654775 1.1327826e-38
-0.21141241 -0.18171448 0.99805844 1.1600795e-38
-0.2036211 -0.15618561 1.0738699 1.1589279e-38
-0.22359884 -0.13905679 1.124089 1.2424456e-38
-0.23065874 -0.13072497 1.1485847 1.5200365e-38
-0.23081069 -0.12522574 1.1648686 1.5016354e-38
-0.23123285 -0.11792827 1.1864713 1.732125e-38
-0.26447588 -0.08862678 1.2724028 1.1035737e-38
-0.27489257 -0.078434266 1.3023235 1.0489396e-38
-0.26810127 -0.07713379 1.3063495 1.0573712e-38
-0.20543459 -0.074665934 1.315268 9.4630176e-39
-0.16490166 -0.068035111 1.3359479 9.2771844e-39
-0.085480757 -0.06241468 1.3546339 7.6223462e-39
-0.059624374 -0.069602087 1.3340102 8.3581063e-39
-0.038654201 -0.086625539 1.2841288 9.0974679e-39
-0.037678346 -0.093394421 1.2641059 7.8103612e-39
-0.024463478 -0.1105721 1.2135683 7.6284727e-39
0.0010199135 -0.13136281 1.152645 6.3427729e-39
0.021354271 -0.14835244 1.1028473 9.9383744e-39
0.041322738 -0.17466757 1.02542 9.1108236e-39
0.051564261 -0.18867432 0.98419785 7.3615954e-39
0.072273061 -0.20682748 0.93096364 1.1050137e-38
0.070877664 -0.21827969 0.89700854 8.1784206e-39
0.041511413 -0.2285223 0.8659181 9.6531654e-39
0.0014606228 -0.24722563 0.80949414 1.1220145e-38
-0.018622736 -0.25466648 0.78694028 1.1127258e-38
-0.038280979 -0.26458016 0.7570731 1.0850278e-38
-0.047766112 -0.26829457 0.74582809 1.0575136e-38
-0.06950321 -0.27900949 0.71353465 1.0116669e-38
-0.029347114 -0.26044488 0.68851471 1.6091752e-38
0.0350077 -0.27561897 0.71801633 1.4065612e-38
0.015003762 -0.25120375 0.70152837 1.6182151e-38
0.058759823 -0.20537931 0.70073122 1.6274707e-38
0.075641163 -0.28009406 0.73474675 1.2869945e-38
0.067489408 -0.2476247 0.71966195 1.4893214e-38
0.12315837 -0.28518665 0.75425947 1.1582088e-38
0.11989121 -0.2356005 0.73462725 1.4065253e-38
0.11576637 -0.19234852 0.71703005 1.5815174e-38
0.12115684 -0.1541739 0.70484763 1.6920078e-38
0.15915006 -0.24921891 0.75424463 1.2409692e-38
0.20539024 -0.25513202 0.77358848 1.1306227e-38
0.17935714 -0.20073763 0.7437278 1.3789033e-38
0.15545763 -0.13477939 0.71036261 1.6732451e-38
0.22275546 -0.19031857 0.75595063 1.2961072e-38
0.20234482 -0.13941386 0.72947133 1.5076532e-38
0.16874388 -0.28922233 0.772663 1.0661935e-38
0.21514355 -0.29094011 0.7905075 9.8343364e-39
0.29172525 -0.31822479 0.82904208 7.8092766e-39
0.33838293 -0.3229934 0.84811562 7.2571846e-39
0.38690987 -0.32647899 0.86740559 6.7983659e-39
0.25564384 -0.16228665 0.75773311 1.2870676e-38
0.28707632 -0.13878503 0.76065868 1.2781001e-38
0.27328047 -0.295717 0.81384087 8.8219894e-39
0.25841719 -0.24128485 0.78810841 1.0570101e-38
0.3123861 -0.2532261 0.81255758 9.2829661e-39
0.3066166 -0.19357426 0.78825814 1.0847053e-38
0.35429832 -0.29238626 0.84264731 8.086232e-39
0.36024228 -0.24587727 0.82757407 8.9149095e-39
0.39796901 -0.28661633 0.85669827 7.6263259e-39
0.36696532 -0.20443511 0.81467193 9.5591971e-39
0.34431303 -0.14744267 0.78509986 1.1401669e-38
0.20028885 -0.098032422 0.71333629 1.5352758e-38
0.22200613 -0.062013257 0.70800906 1.5260924e-38
0.2689006 -0.093449347 0.737077 1.4160337e-38
0.26329181 -0.047021549 0.71774977 1.4529119e-38
0.31550103 -0.092447914 0.7539857 1.2873561e-38
0.32204148 -0.044950232 0.73876637 1.3147986e-38
0.31896943 -0.0047818003 0.72270513 1.3426374e-38
0.35414028 -0.10176191 0.77177429 1.1953763e-38
-0.034383908 -0.25557446 0.6848377 1.4987558e-38
-0.019654989 -0.27736074 0.69839281 1.526524e-38
0.016252453 -0.28230971 0.71354681 1.4341841e-38
0.060236961 -0.2906011 0.73293769 1.2595866e-38
0.078149423 -0.29245988 0.74027073 1.2225669e-38
0.12718894 -0.30173007 0.76189977 1.0938875e-38
0.16750157 -0.30819565 0.77925068 9.9265237e-39
0.18927246 -0.3139348 0.78945595 9.1914768e-39
0.23385403 -0.32103315 0.80862504 8.4524866e-39
0.26008376 -0.32630059 0.82030857 7.7167194e-39
0.29606026 -0.33202332 0.83577561 7.1653491e-39
0.32823807 -0.33778819 0.84984958 6.8916293e-39
0.35532901 -0.34098938 0.861085 7.1682316e-39
0.38625175 -0.34321219 0.87337774 6.8919978e-39
0.41269368 -0.34274611 0.88301003 6.8916419e-39
0.41217121 -0.30439797 0.86857045 6.7976484e-39
0.40999815 -0.28448203 0.86036611 7.6281209e-39
0.40195355 -0.24531223 0.84283191 8.5464941e-39
0.40101758 -0.23478957 0.83857572 8.7305252e-39
0.39270967 -0.18018714 0.81521088 1.0019469e-38
0.37293345 -0.11564177 0.78389949 1.1402035e-38
0.37087041 -0.098052636 0.77660036 1.1955905e-38
0.36114827 -0.066315763 0.76120526 1.2137791e-38
0.35122979 -0.018630207 0.73981261 1.2692042e-38
0.34103718 0.023137409 0.7205168 1.3522885e-38
0.32517052 0.024985917 0.71394634 1.3151227e-38
0.2462288 -0.025579745 0.70345694 1.4081114e-38
0.2164927 -0.047089145 0.70042038 1.0108763e-38
0.18832558 -0.069925994 0.69845879 1.0661216e-38
0.16518128 -0.09481521 0.69912225 1.5445675e-38
0.10456965 -0.14476493 0.69520134 1.6553446e-38
0.060243305 -0.17097697 0.6885013 6.1598222e-39
0.044610631 -0.19485603 0.69157505 1.7472168e-38
-0.03186027 -0.24820299 0.68303508 1.1677513e-38
0.14602649 -0.10393085 0.736664 1.2875349e-38
0.13578656 -0.09852384 0.75352979 1.3428886e-38
0.16958322 -0.089425974 0.77274245 1.204271e-38
0.11699905 -0.076798134 0.81728184 1.3981692e-38
0.097237036 -0.059435423 0.8690837 1.4350112e-38
0.087966032 -0.044621617 0.91191769 1.4534862e-38
0.13864079 -0.071936592 0.82690483 1.3242325e-38
0.12781912 -0.054316089 0.87781715 1.3425637e-38
0.18571457 -0.074439168 0.81149399 1.1396978e-38
0.18182345 -0.054758321 0.86688733 1.1581363e-38
0.13334601 -0.042525485 0.90959132 1.287102e-38
0.18354782 -0.037217923 0.91532326 1.1581723e-38
0.089275882 -0.030359279 0.95131826 1.4256474e-38
0.13443336 -0.025023311 0.95803559 1.2593352e-38
0.18177217 -0.022528522 0.95646513 1.1582441e-38
0.016926412 0.021245433 1.1077275 1.4443018e-38
0.0054739229 0.038926624 1.1589217 1.4441217e-38
-0.016331144 0.060572483 1.2229939 1.388589e-38
-0.045377009 0.085285902 1.2968917 1.1858303e-38
-0.017203942 0.073880769 1.2601353 1.277846e-38
-0.0093271388 0.090059005 1.3036807 1.1302967e-38
0.04645393 -0.0033292153 1.0341289 1.4626334e-38
0.089018777 -0.011067173 1.0049785 1.3701141e-38
0.069918543 0.0087104058 1.0633729 1.3607862e-38
0.023406124 0.045297138 1.1734047 1.3422748e-38
0.064168669 0.026975879 1.1151665 1.3237642e-38
0.081192672 0.044057898 1.1595802 1.2314245e-38
0.13013378 -0.0085249739 1.0046577 1.240896e-38
0.12830721 0.0077223424 1.0501382 1.2131655e-38
0.18665537 -0.0059789917 1.0015801 1.1123256e-38
0.17581506 0.0097445091 1.0472239 1.1120744e-38
0.12972051 0.028181389 1.1067413 1.1670316e-38
0.12410971 0.046730231 1.1592976 1.148628e-38
0.17870836 0.028796215 1.0996503 1.0383539e-38
0.18243347 0.05024616 1.1585917 9.8332406e-39
0.025059095 0.062703542 1.2214812 1.2684108e-38
0.072580725 0.062993646 1.2137511 1.1946184e-38
0.037124205 0.080564074 1.2689496 1.1486648e-38
0.079012662 0.079352438 1.2580577 1.1117143e-38
0.029651683 0.093974516 1.3075602 1.0382812e-38
0.078730434 0.10059885 1.3171536 9.646327e-39
0.12822156 0.066780105 1.2142788 1.0842714e-38
0.13272841 0.086693898 1.268811 9.9232783e-39
0.16404371 0.074590527 1.2295498 9.8336008e-39
0.13709435 0.10295799 1.3132256 9.1878726e-39
0.13515827 0.11516292 1.3474919 8.2684485e-39
0.21288793 -0.062908478 0.83865726 1.0569734e-38
0.23895249 -0.049575169 0.87102926 9.8339763e-39
0.22541486 -0.034521632 0.91529578 1.0294946e-38
0.24339633 -0.015200933 0.96575916 9.5599062e-39
0.26522097 -0.025027134 0.93453121 9.3783988e-39
0.24385433 0.00063989538 1.0096996 1.0484741e-38
0.22919421 0.019122472 1.0636972 9.5616956e-39
0.27392572 -0.0043954784 0.99030417 8.830599e-39
0.27471596 -0.036165159 0.90187222 8.5472032e-39
0.26145235 -0.047237251 0.87348479 9.0978686e-39
0.23121701 -0.062470149 0.8365829 1.0017633e-38
0.22020967 -0.069935724 0.81781286 9.8346924e-39
0.1976492 -0.080691844 0.79197347 1.0937439e-38
0.18136737 -0.090685107 0.76712638 1.1672855e-38
0.15186104 -0.10645992 0.72858739 1.2600919e-38
0.13101847 -0.10636517 0.73259479 1.3521439e-38
0.11501835 -0.088355266 0.78551966 1.3797309e-38
0.097597048 -0.065954573 0.85090196 1.4443395e-38
0.084569804 -0.057657924 0.87629896 1.434903e-38
0.074481249 -0.045997467 0.91051638 1.4904369e-38
0.055526368 -0.026049599 0.96935761 1.4812529e-38
0.034503348 -0.0068816007 1.0264032 1.4441946e-38
0.0045222766 0.023522198 1.1162828 1.351961e-38
-0.024906108 0.053394929 1.2045875 1.3888748e-38
-0.035196103 0.071207374 1.2559377 1.3518542e-38
-0.045163341 0.085444979 1.2972953 1.1302987e-38
-0.043754529 0.091851413 1.3148462 1.2133461e-38
0.015933286 0.10185453 1.3319237 9.9218377e-39
0.067971803 0.11012024 1.3455467 9.6456026e-39
0.12987214 0.1199941 1.3618674 7.9000317e-39
0.15587655 0.11345802 1.3390321 9.1896985e-39
0.17234738 0.091354348 1.2746458 9.1911362e-39
0.17410208 0.083291307 1.2519228 9.2818703e-39
0.19186246 0.066795282 1.202889 8.8169685e-39
0.21028978 0.044209123 1.1368105 9.005289e-39
0.22570772 0.035360154 1.1094491 8.9195814e-39
0.2426839 0.021588199 1.0681264 1.0030255e-38
0.26111081 0.0051646773 1.0191745 1.4270532e-38
0.26335269 0.0032248413 1.0133808 1.1045826e-38
-0.49024606 -0.26606411 1.2785039 6.7086772e-39
-0.39498827 -0.36784428 0.98047054 7.6327929e-39
-0.40031347 -0.35314178 1.0230131 7.815752e-39
-0.43701506 -0.32378712 1.1095269 7.6317125e-39
-0.40443334 -0.33734518 1.068625 8.0912501e-39
-0.39743599 -0.31824097 1.1230639 8.4585991e-39
-0.3670969 -0.37242475 0.96563286 8.0930535e-39
-0.35344562 -0.35998279 1.0005381 8.2763616e-39
-0.32072902 -0.37175402 0.96475911 8.2770833e-39
-0.3001532 -0.35985091 0.99769902 8.3674796e-39
-0.36101192 -0.34186545 1.0530223 8.5504332e-39
-0.35727301 -0.32041612 1.1143925 8.7348188e-39
-0.31101304 -0.34170121 1.0504751 8.5504318e-39
-0.29823953 -0.31900173 1.1148896 8.4575131e-39
-0.44252926 -0.30524325 1.1631123 7.9064973e-39
-0.46210238 -0.28585136 1.2199818 7.538435e-39
-0.41358334 -0.29999253 1.176443 8.3656776e-39
-0.4149279 -0.28240678 1.227025 8.2720428e-39
-0.45069227 -0.26457861 1.2803817 7.1667686e-39
-0.40846702 -0.26987672 1.2626173 7.9940112e-39
-0.39439064 -0.25752717 1.2972317 7.1664085e-39
-0.36304441 -0.29909366 1.1759726 8.6415456e-39
-0.36048287 -0.28097913 1.2278373 8.270961e-39
-0.30855575 -0.29994044 1.1702508 8.5482682e-39
-0.30992547 -0.28121164 1.2241168 8.4567886e-39
-0.34104159 -0.26712236 1.266456 8.2713225e-39
-0.35169151 -0.25442579 1.3035594 7.5359141e-39
-0.26711124 -0.36975771 0.96725452 8.0923319e-39
-0.24873774 -0.35574648 1.006381 7.8150219e-39
-0.22433579 -0.36557886 0.97667205 7.2625656e-39
-0.25984278 -0.33914065 1.0547384 7.9976125e-39
-0.49501511 -0.263845 1.2851645 6.8016057e-39
-0.425639 -0.25545165 1.3050786 6.9820299e-39
-0.34985036 -0.24979702 1.3167408 7.2632564e-39
-0.32954326 -0.25764599 1.2929747 8.1809164e-39
-0.32635191 -0.25947577 1.2875276 8.5486101e-39
-0.31793526 -0.26696494 1.2655126 8.3653076e-39
-0.28958267 -0.28566155 1.2101098 8.5496695e-39
-0.27909508 -0.29733568 1.175952 8.273112e-39
-0.26899546 -0.3088392 1.1423075 8.3653076e-39
-0.25606981 -0.32149461 1.1051847 8.0858691e-39
-0.23798683 -0.33990693 1.051218 7.5376979e-39
-0.21818247 -0.35870489 0.99604046 6.891988e-39
-0.20992884 -0.37000373 0.96309525 6.9873982e-39
-0.21547234 -0.37328404 0.95400977 7.2636446e-39
-0.24438056 -0.37351286 0.95509833 7.9079392e-39
-0.28516755 -0.3743304 0.95521331 8.0012195e-39
-0.30509016 -0.37463921 0.95552939 8.2763686e-39
-0.38515854 -0.37560833 0.95758092 7.6331614e-39
-0.40717483 -0.36092117 1.0010874 7.44841e-39
-0.42609918 -0.34348181 1.0523106 7.4476841e-39
-0.44503692 -0.32156169 1.1164019 7.3558542e-39
-0.45656669 -0.30919543 1.1526104 7.539528e-39
-0.48429385 -0.27814192 1.2434608 6.9867018e-39
-0.49498299 -0.26721418 1.2754873 6.3409666e-39
-0.31997842 -0.099580973 1.3172333 1.5021408e-38
-0.29336771 -0.07733278 1.3192238 1.5206161e-38
-0.25122762 -0.071356483 1.3087301 1.1129388e-38
-0.25042218 -0.044756301 1.3208838 1.6771324e-38
-0.21419036 -0.022586077 1.3198056 1.529332e-38
-0.1776247 0.011844759 1.3243413 1.7876954e-38
-0.14705124 0.030098822 1.32322 1.5199327e-38
-0.11046824 0.070407227 1.3304918 1.8799987e-38
-0.051356345 0.10988086 1.3302735 1.8333603e-38
0.0005333852 0.15164584 1.3334004 1.8523053e-38
0.031456612 0.16741772 1.3310109 1.4827673e-38
0.079454213 0.20704262 1.3343662 1.51039e-38
0.14027762 0.27217507 1.3455771 1.944681e-38
0.16759083 0.28308964 1.3420599 1.5288661e-38
0.21481602 0.31917423 1.3440073 1.4826961e-38
0.24650942 0.34831756 1.3476121 1.6033792e-38
0.29941976 0.3925015 1.3515457 1.5573178e-38
0.36159086 0.44795638 1.3578176 1.6775324e-38
0.41529164 0.4773666 1.3546108 1.2066867e-38
0.46955511 0.53029698 1.3621978 1.2438893e-38
0.47373798 0.5448274 1.3676568 1.5579655e-38
0.49330613 0.53802079 1.3583148 9.4731378e-39
0.46401572 0.51543748 1.3570124 9.6600513e-39
0.41492265 0.46572986 1.3492993 8.8266837e-39
0.32571861 0.40293667 1.3481244 1.0583085e-38
0.2673738 0.3517963 1.3426589 1.242375e-38
0.22854462 0.32228246 1.3411301 1.241656e-38
0.19503595 0.2951155 1.3390193 1.2324713e-38
0.10665396 0.22133887 1.3324621 1.2789283e-38
0.077113628 0.20160651 1.3325683 1.3256757e-38
0.055816904 0.18357675 1.3308705 1.343573e-38
0.016108463 0.15344372 1.3293301 1.380236e-38
-0.021342479 0.093382172 1.3131183 1.2039449e-38
-0.13470146 0.035110582 1.3216654 1.3165621e-38
-0.1615268 0.011678664 1.3191903 1.362876e-38
-0.18389522 -0.005464715 1.3182437 1.4457455e-38
-0.21512063 -0.034938581 1.3143371 1.1308374e-38
-0.31986904 -0.10036889 1.3168314 1.5021404e-38
-0.31982908 -0.096858069 1.3184563 1.5298711e-38
-0.30557525 -0.083556004 1.3201685 1.5942292e-38
-0.26530823 -0.054421768 1.3210669 1.6956425e-38
-0.24504393 -0.035404895 1.3235506 1.7599996e-38
-0.21525173 -0.014755399 1.3237928 1.7507802e-38
-0.19506888 0.0043677571 1.3263514 1.9075851e-38
-0.16708045 0.028644584 1.3288542 1.8798904e-38
-0.1359359 0.054248195 1.3309809 1.806061e-38
-0.096052177 0.086152241 1.3332922 1.9445344e-38
-0.066304199 0.10646864 1.3333929 2.055206e-38
-0.045166239 0.1250419 1.3353943 2.055278e-38
-0.015179344 0.15402165 1.3394607 2.0827569e-38
-0.0046029543 0.16263106 1.3401432 2.0828287e-38
0.020683911 0.17789887 1.3392949 2.0553147e-38
0.076649852 0.22448291 1.343385 1.9721226e-38
0.096756436 0.23869005 1.3436748 1.9906347e-38
0.17421277 0.30723959 1.3512374 1.9907793e-38
0.21501967 0.33693281 1.3522264 1.9447178e-38
0.26330799 0.36926043 1.3520863 1.8157165e-38
0.30460393 0.40553299 1.3559901 1.7234856e-38
0.36560807 0.45399225 1.3593669 1.7328142e-38
0.42551893 0.50310105 1.3633912 1.6868594e-38
0.46456039 0.54202056 1.3692402 1.6131037e-38
-0.71577001 -0.43134964 1.2872241 5.8940365e-39
-0.68690628 -0.42829978 1.2795496 4.8741294e-39
-0.66735739 -0.40854532 1.2826028 5.8940435e-39
-0.64204758 -0.37269238 1.2913492 6.7252531e-39
-0.58982074 -0.32412353 1.2975434 7.8315993e-39
-0.52354509 -0.26145723 1.3058854 9.5854742e-39
-0.47840083 -0.23805138 1.3025748 9.1176522e-39
-0.41926259 -0.2063574 1.2987198 8.5572799e-39
-0.40846145 -0.17989925 1.3076568 1.0777894e-38
-0.40481186 -0.23061743 1.2828494 7.4419178e-39
-0.38566846 -0.15392569 1.3125882 1.2901634e-38
-0.41634804 -0.1739793 1.3129035 1.2348455e-38
-0.45598847 -0.20396519 1.3114103 1.1426139e-38
-0.47741655 -0.22185615 1.3098185 1.0966968e-38
-0.5450722 -0.27607784 1.3058504 9.5851127e-39
-0.61815417 -0.34028912 1.2989329 8.3880045e-39
-0.6591298 -0.3716636 1.2972127 7.6511723e-39
-0.72377419 -0.41361898 1.2980169 7.8348335e-39
-0.72320592 -0.42349404 1.2932317 7.2820254e-39
-0.70541435 -0.44387102 1.2781198 4.5039022e-39
-0.66822809 -0.4299545 1.272891 4.4106248e-39
-0.64207846 -0.4148297 1.2717043 4.6864956e-39
-0.57797545 -0.33557507 1.2884686 6.0665574e-39
-0.47526625 -0.25474316 1.2938012 6.8898258e-39
-0.45711765 -0.25128782 1.289693 6.8908908e-39
