# .PCD v0.7 - Point Cloud Data file format
VERSION 0.7
FIELDS x y z rgb
SIZE 4 4 4 4
TYPE F F F F
COUNT 1 1 1 1
WIDTH 1047
HEIGHT 1
VIEWPOINT 0 0 0 1 0 0 0
POINTS 1047
DATA ascii
-0.45872146 0.34879479 1.2782886 8.4077908e-45
-0.45256439 0.35572803 1.3028092 1.9618179e-44
-0.45403221 0.36887172 1.2766647 1.4012985e-45
-0.44685888 0.37984759 1.301257 1.1210388e-44
-0.4461481 0.39452904 1.2850449 1.4012985e-45
-0.43947944 0.40859532 1.3026078 2.8025969e-45
-0.44015211 0.384835 1.3314855 1.821688e-44
-0.43366399 0.40842381 1.334987 1.4012985e-44
-0.42425299 0.42885262 1.3589795 9.8090893e-45
-0.43185663 0.42996645 1.3154237 0
-0.42485908 0.44590583 1.3322346 1.4012985e-45
-0.4173905 0.45083299 1.3667569 9.8090893e-45
-0.41828659 0.46923316 1.3365616 0
-0.41320643 0.47200871 1.3608335 7.0064923e-45
-0.40840408 0.47563311 1.3824054 5.6051939e-45
-0.41071305 0.49351153 1.3451165 0
-0.40413189 0.50448704 1.3664359 1.4012985e-45
-0.39892536 0.5271129 1.3641747 0
-0.40171823 0.49768609 1.3891071 5.6051939e-45
-0.39532751 0.53722149 1.3701936 0
-0.40659663 0.47034326 1.3996528 4.2038954e-45
-0.43434036 0.3913832 1.3546255 3.9376487e-43
-0.47704104 0.27138221 1.2832292 1.2611686e-44
-0.5020088 0.20738322 1.2330219 2.784324e-40
-0.52708668 0.095174745 1.2483418 3.1234831e-39
-0.54105753 0.063887499 1.2140423 2.4868059e-39
-0.55233562 0.059841339 1.1572548 1.8620034e-40
-0.53631335 0.1119298 1.1743572 1.4699621e-42
-0.5070309 0.22365098 1.1829457 3.6734339e-40
-0.48421293 0.29126361 1.2163135 0
-0.47450215 0.32009736 1.2304323 0
-0.45536554 0.37148058 1.2657162 0
-0.44205377 0.41118035 1.2848324 0
-0.42637753 0.45228344 1.3150924 0
-0.41285449 0.4920246 1.33532 0
-0.39679989 0.53750628 1.3616643 0
-0.40236825 -0.1206573 2.2337918 0
-0.39784059 -0.1050223 2.2373691 1.4012985e-45
-0.39048123 -0.091055162 2.2588854 3.61535e-43
-0.39246979 -0.077765755 2.2296629 0
-0.38045993 -0.044759311 2.2507648 2.7623797e-40
-0.37259763 -0.037599545 2.2844005 6.4357995e-40
-0.35681239 0.082663059 2.2066679 4.6241728e-40
-0.36057365 0.11547974 2.1408587 9.3292847e-41
-0.35933813 0.13089719 2.1265371 3.7814908e-39
-0.35523862 0.10825866 2.180253 7.3685038e-40
-0.3514784 0.09674716 2.2168291 8.2905021e-40
-0.37202153 -0.024948344 2.2702293 8.2832154e-40
-0.35994369 -0.0015623149 2.3049052 2.8025969e-45
-0.35436067 0.022651097 2.3025475 4.2038954e-45
-0.35228491 0.0091436114 2.3325508 0
-0.35011572 0.076147214 2.2526214 4.6277742e-40
-0.35066652 0.039309658 2.3001127 5.5356334e-40
-0.34518847 0.04494096 2.3226664 2.7623236e-40
-0.34235656 0.066630453 2.3085647 1.847542e-40
-0.34464103 -0.00178951 2.3897996 3.5873241e-43
-0.34336251 0.019298228 2.3679373 1.4012985e-45
-0.33886027 0.0088404324 2.4071689 0
-0.33742073 0.045070253 2.3654237 2.1179786e-39
-0.33516854 0.0912214 2.3145597 2.8025969e-45
-0.39246979 -0.077765755 2.2296629 0
-0.35798934 0.07781703 2.2068105 5.5390105e-40
-0.36321372 0.10753507 2.1371651 4.6098095e-40
-0.36023605 0.12954277 2.1234314 4.7956806e-39
-0.35562605 0.13760267 2.137856 4.9782403e-39
-0.35148656 0.11490962 2.1918678 9.2052277e-40
-0.35050926 0.097926661 2.2205679 1.1045651e-39
-0.33769622 0.049771301 2.3574519 0
-0.33811122 0.012096799 2.406842 0
-0.34562805 -0.0054805581 2.3894079 7.1746481e-43
-0.38816032 -0.086062431 2.2648647 1.4012985e-45
-0.40065566 -0.11839046 2.2401483 0
-0.39948669 -0.10406545 2.2269576 0
-0.37985137 0.20054665 1.9176049 7.0050672e-39
-0.37770739 0.19054961 1.9431694 2.4921813e-39
-0.3805154 0.18096089 1.9408029 1.5673257e-39
-0.382395 0.19744889 1.9077946 7.736112e-39
-0.37642235 0.21326052 1.9191164 1.9400879e-39
-0.37633684 0.18903157 1.9528272 2.3121383e-39
-0.33989295 0.61536086 1.5694026 1.4012985e-45
-0.33480942 0.61257339 1.6013249 4.2038954e-45
-0.32654124 0.61752534 1.6402326 0
-0.33949274 0.6012857 1.5909232 1.821688e-44
-0.33931965 0.61953312 1.5668476 0
-0.33020136 0.62312746 1.6123166 1.4012985e-45
-0.32525074 0.61751372 1.6473813 0
-0.65008217 0.26925829 1.8084488 4.6083368e-39
-0.61281145 0.27401763 1.7825246 9.9553063e-39
-0.5604462 0.28466827 1.7440317 1.0602132e-38
-0.59159392 0.2848599 1.7635202 2.8577016e-39
-0.53496194 0.29549247 1.7223533 6.6377154e-39
-0.50581729 0.30869204 1.6971327 2.305611e-39
-0.68566167 0.2566056 1.8374308 7.1894318e-39
-0.48365906 0.30365685 1.6858264 1.2722267e-38
-0.45952493 0.31794629 1.6631882 4.5175775e-39
-0.39011574 0.32983428 1.6133299 9.7705577e-39
-0.41061831 0.3299405 1.6261687 3.5938261e-39
-0.30909213 0.35244185 1.5505711 7.0947321e-39
-0.28844616 0.35226533 1.537679 1.2625394e-38
-0.27135298 0.36870033 1.5183485 1.7502806e-39
-0.19762638 0.3881402 1.4618325 1.3804107e-39
-0.15235634 0.39720055 1.4286318 3.039209e-39
-0.2421263 0.37101462 1.4987596 6.63447e-39
-0.21302812 0.37081346 1.4805648 1.3914314e-38
-0.25477338 0.4168393 1.4827886 3.6913705e-40
-0.11091445 0.40794826 1.3969576 2.2108888e-39
-0.11198036 0.40163407 1.4009246 9.8580688e-39
-0.066536754 0.41825444 1.3636678 2.9462875e-39
-0.043584313 0.41516921 1.3508438 1.3267501e-38
-0.357041 0.34454215 1.5848504 3.7774943e-39
-0.021426413 0.42834517 1.3300297 4.7891169e-39
0.018844321 0.43583715 1.300792 1.1241362e-38
0.063040555 0.44296545 1.2692753 1.3174939e-38
0.090448283 0.45819527 1.2440872 3.6849399e-39
0.16779511 0.44043547 1.2047162 2.1655484e-38
0.16052979 0.42092204 1.2194731 1.9447876e-38
0.19796218 0.37048832 1.2222631 1.8622463e-38
0.18921909 0.39750808 1.2136548 1.8068564e-38
0.15326364 0.46461877 1.2012291 1.3452249e-38
0.1218398 0.46590179 1.2203217 1.4287443e-38
0.16275251 0.47005045 1.1924255 1.3269306e-38
0.11750011 0.47800997 1.2167292 1.6962932e-38
0.097931072 0.46828935 1.2341113 2.9020891e-42
0.056672752 0.45103994 1.2690644 9.1233821e-39
0.0015089414 0.43866053 1.3102202 8.5727432e-39
-0.017375998 0.43629295 1.323333 0
-0.055429365 0.42660543 1.3523223 0
-0.093580104 0.41769183 1.380969 0
-0.11306803 0.40992472 1.3972802 0
-0.14470765 0.40129775 1.4216824 4.6097815e-40
-0.17774677 0.39712641 1.4446385 4.6242709e-40
-0.25690734 0.41955146 1.4827145 0
-0.33953959 0.35747752 1.5670902 0
-0.38593864 0.34143311 1.6046473 9.2559967e-41
-0.39943495 0.33605844 1.6159412 8.4077908e-45
-0.46190515 0.32254329 1.662285 1.0166673e-39
-0.50304377 0.31356087 1.6928467 0
-0.55655849 0.29923525 1.7339813 0
-0.59509474 0.2908347 1.7626024 0
-0.63448417 0.27917045 1.7934642 1.4012985e-45
-0.68683845 0.26754853 1.8324575 4.5092664e-39
-0.70652086 0.25437036 1.8517159 6.908159e-39
-0.68481183 0.24417245 1.8433877 8.5785194e-39
-0.6114428 0.26636779 1.7856576 1.4659107e-38
-0.56025761 0.27966228 1.7465265 1.2354214e-38
-0.51634669 0.29480037 1.7110074 1.2538956e-38
-0.4774304 0.30262288 1.6824491 1.3736419e-38
-0.41680923 0.32443929 1.6329343 7.5578724e-39
-0.39237592 0.32729608 1.6160766 1.3919745e-38
-0.31610557 0.34330189 1.5597537 1.4285268e-38
-0.27668238 0.35327727 1.5297524 1.4099438e-38
-0.24677061 0.36400157 1.5053419 1.3086352e-38
-0.20291533 0.36826402 1.475536 1.6309222e-38
-0.14361534 0.3910048 1.4263693 1.3913603e-38
-0.12403239 0.39360821 1.4126943 1.4282735e-38
-0.084991843 0.40331346 1.3830748 1.4557881e-38
-0.034430735 0.4145011 1.3454361 1.4464243e-38
-0.0065056672 0.42313695 1.3233651 1.4096537e-38
0.017652433 0.4269557 1.3061783 1.5202157e-38
0.043744933 0.43467101 1.2857407 1.4187649e-38
0.06682092 0.43793714 1.269523 1.5382925e-38
0.19796218 0.37048832 1.2222631 1.8622463e-38
0.17587098 0.46489003 1.1868697 1.6304897e-38
0.17187525 0.46914321 1.1871619 1.3822485e-38
0.1681063 0.46971735 1.1892325 1.3731003e-38
-0.24638273 -0.43898419 1.9243314 1.7795589e-38
-0.246369 -0.40976232 1.9090663 2.1666704e-38
-0.24687603 -0.35161921 1.8790289 1.6873277e-38
-0.15333366 -0.45158458 1.8723915 2.2126597e-38
-0.20607917 -0.38553423 1.8710787 2.0739687e-38
-0.23558381 -0.36249924 1.8776076 1.8806476e-38
-0.17112923 -0.41780007 1.8659444 1.9726984e-38
-0.12657633 -0.51643807 1.8894234 2.3048913e-38
-0.073989153 -0.54490352 1.871213 2.341805e-38
-0.087190554 -0.51402998 1.8633963 2.3325494e-38
-0.12361702 -0.49583101 1.8768035 2.3140744e-38
-0.085728005 -0.4829306 1.84624 2.0556013e-38
-0.094309241 -0.45499283 1.8370504 1.9912454e-38
-0.040459327 -0.53492218 1.844915 2.1573068e-38
-0.034057733 -0.55070734 1.8491304 2.3417691e-38
-0.19442199 -0.44954172 1.8971654 2.3233299e-38
-0.15595511 -0.51160854 1.9053782 2.3509886e-38
-0.15635478 -0.46644136 1.8820482 2.3140743e-38
-0.09121684 -0.54551417 1.8823664 2.3325496e-38
-0.22944455 -0.35124302 1.8678697 1.5860211e-38
-0.25314921 -0.34818515 1.8811811 1.6597419e-38
-0.25971526 -0.40543419 1.9152001 1.6968365e-38
-0.24638273 -0.43898419 1.9243314 1.7795589e-38
-0.15595511 -0.51160854 1.9053782 2.3509886e-38
-0.092751883 -0.55172622 1.8865749 2.3417691e-38
-0.071922585 -0.56035757 1.8779819 2.341805e-38
-0.029064588 -0.5456453 1.8433472 2.3325497e-38
-0.081680745 -0.47661528 1.8403975 2.1016634e-38
-0.14978738 -0.41733065 1.8522775 1.7149138e-38
-0.21947719 -0.36062273 1.8664985 1.898979e-38
-1.291081 -0.28151774 2.4991293 3.6874454e-39
-1.3008801 -0.24881202 2.4882162 6.4500787e-40
-1.2506874 -0.27999228 2.472929 2.949886e-39
-1.2733815 -0.26313406 2.4783998 2.027215e-39
-1.2416683 -0.2600522 2.4568465 2.3023586e-39
-1.2096035 -0.25536096 2.4342318 2.3941927e-39
-1.2472671 -0.28785396 2.4748826 3.2261044e-39
-1.2905201 -0.28575289 2.5009875 3.9633135e-39
-1.2980425 -0.26965475 2.4973135 4.1484166e-39
-1.2627892 -0.24153808 2.4604633 7.3756504e-40
-1.2134095 -0.25216955 2.4349589 2.1143856e-39
-1.1979514 -0.2594355 2.4290311 3.869306e-39
-0.978701 -0.75225395 2.5484416 1.4201405e-38
-0.97406024 -0.73958266 2.5389078 7.9277199e-39
-0.99040401 -0.70582217 2.5315599 6.5426219e-39
-1.037613 -0.76262486 2.5909059 1.281305e-38
-1.0222034 -0.75426388 2.5768497 1.2536104e-38
-0.98807073 -0.76129901 2.5590565 1.8809739e-38
-0.99676365 -0.6995613 2.5322909 7.1883598e-39
-0.97637266 -0.71379226 2.526897 8.3847254e-39
-0.95183867 -0.7512483 2.531023 8.4755001e-39
-0.95861077 -0.75316697 2.5362837 5.5353153e-39
-0.80400831 0.22529463 1.9282061 1.0413762e-38
-0.79767776 0.23135521 1.9210606 6.0744509e-39
-0.75483441 0.24255356 1.88827 7.4627915e-39
-0.78384161 0.22684972 1.9147115 1.3185034e-38
-0.74489033 0.25306696 1.8765272 5.7978332e-39
-0.76139259 0.25168175 1.8876286 4.4159959e-39
-0.74666905 0.24062295 1.8841426 8.201451e-39
-0.77176005 0.2295627 1.905697 1.3187562e-38
-0.79636264 0.2236537 1.9242545 1.2631492e-38
-0.82097137 0.22414942 1.9394722 5.6120098e-39
-0.79839796 0.2374469 1.9183332 4.3216507e-39
0.26854423 0.26578954 1.2325366 1.2382717e-38
0.24930504 0.26053426 1.2473799 1.2474552e-38
0.24666165 0.27185142 1.2431337 1.2015023e-38
0.23589754 0.25391281 1.2592689 1.2469519e-38
0.24804343 0.25110313 1.2530973 6.571228e-39
0.27058536 0.25929105 1.2346458 1.2651028e-38
0.27020428 0.27046067 1.2290537 1.247994e-38
-0.38456005 -0.48408937 2.0347803 1.4760353e-38
-0.40063605 -0.48879617 2.0473478 1.8078311e-38
-0.35440055 -0.49958161 2.023901 1.6879032e-38
-0.33194771 -0.52522039 2.0231664 1.9919333e-38
-0.3145209 -0.53384769 2.016711 2.1394436e-38
-0.30932429 -0.52787048 2.0103221 1.7710239e-38
-0.38976064 -0.47892019 2.0353518 1.2825004e-38
-0.40777698 -0.4918167 2.0534155 1.9643468e-38
-0.32810557 -0.53778124 2.0273082 2.240786e-38
-0.30488813 -0.53595889 2.0117552 2.1947606e-38
-1.241895 -0.11680071 2.3821983 9.8090893e-45
-1.2408733 -0.09197022 2.368592 3.3631163e-44
-1.2197312 -0.14279693 2.3818321 1.1978103e-39
-1.2112172 -0.092537075 2.3502371 1.8567205e-42
-1.2636216 -0.030525822 2.3508186 2.4950694e-39
-1.2402805 -0.040608428 2.3414035 3.1397297e-39
-1.2940323 -0.0012517376 2.35466 3.7414669e-43
-1.2163357 -0.1425942 2.3795907 2.1204715e-39
-1.241895 -0.11680071 2.3821983 9.8090893e-45
-1.2496449 -0.088014826 2.3720434 5.1848043e-44
-1.2697959 -0.021999614 2.3502502 2.8634974e-39
-1.2155321 -0.084546402 2.348779 9.5136955e-41
-1.207262 -0.099625841 2.3514507 5.0446745e-44
-0.50500137 0.52805167 1.7391369 2.6624671e-44
-0.48929882 0.54101783 1.7148141 5.6051939e-45
-0.5695312 0.48829669 1.8025407 3.9796876e-43
-0.60837078 0.45836264 1.8569278 5.1848043e-44
-0.58856237 0.46829203 1.8436081 4.0637655e-44
-0.55949616 0.49870673 1.7812598 3.3631163e-44
-0.52967048 0.50517142 1.7841285 4.2038954e-44
-0.55952805 0.47659859 1.8409617 4.4841551e-44
-0.55331606 0.48905379 1.8115498 4.6242849e-44
-0.52353352 0.49627382 1.8123485 4.7644148e-44
-0.53154242 0.48536661 1.8363537 4.6242849e-44
-0.61144698 0.44596514 1.8883214 0
-0.59099346 0.45872256 1.8678017 3.7835059e-44
-0.57340902 0.45784244 1.8821669 3.3631163e-44
-0.55171794 0.4447231 1.9323947 1.6815582e-44
-0.55655938 0.46731174 1.868073 4.3440252e-44
-0.55123603 0.45521927 1.9043689 2.6624671e-44
-0.52691317 0.47562286 1.8658314 4.4841551e-44
-0.528696 0.46481213 1.8938203 3.643376e-44
-0.52680105 0.45246193 1.9284753 3.8395578e-43
-0.51451075 0.51746672 1.7612482 3.3631163e-44
-0.49283972 0.50631893 1.8061365 5.0446745e-44
-0.50273627 0.49382243 1.8331484 5.0446745e-44
-0.47547272 0.4978829 1.8407655 5.0446745e-44
-0.44651371 0.501257 1.8513924 4.2038954e-44
-0.50689489 0.46575972 1.9061227 2.9427268e-44
-0.49755904 0.48308131 1.8656939 4.0637655e-44
-0.46685871 0.48830485 1.8725117 3.7835059e-44
-0.4736183 0.47682539 1.8989146 1.9618179e-44
-0.49604478 0.4592672 1.9310583 1.6815582e-44
-0.47494754 0.45538351 1.9559319 9.8090893e-45
-0.46105635 0.47064269 1.9241803 1.4012985e-44
-0.42789215 0.49741322 1.8744704 3.3631163e-44
-0.43026081 0.48887983 1.895908 1.9618179e-44
-0.41104269 0.48627758 1.916039 1.5414283e-44
-0.42875335 0.47388992 1.9374294 5.6051939e-45
-0.48907661 0.51565433 1.7834829 1.8587383e-40
-0.45579562 0.50963908 1.822421 4.0777785e-43
-0.55417365 0.43992731 1.9436761 1.6815582e-44
-0.47481301 0.4502756 1.9698224 1.5414283e-44
-0.41292575 0.47793624 1.9372884 0
-0.40448546 0.48937348 1.9121457 2.9427268e-44
-0.41557896 0.50081807 1.8736665 4.0637655e-44
-0.44336891 0.51284969 1.8222193 1.1196375e-42
-0.48929882 0.54101783 1.7148141 5.6051939e-45
-0.52080363 0.52339709 1.7409381 1.821688e-44
-0.56752807 0.49727297 1.7796574 1.098618e-42
-0.6090427 0.46514416 1.83815 5.0446745e-44
-0.61113811 0.4570218 1.8586633 4.6242849e-44
-0.61734432 0.44152787 1.8962882 0
-1.2353224 0.036157008 2.5700815 9.2572579e-41
-1.2071075 0.037984364 2.5843792 1.1974628e-39
-1.1921575 0.049377531 2.5637932 4.700168e-39
-1.2217288 0.028190907 2.6008677 7.3720631e-40
-1.1968151 0.0075655892 2.6735697 4.5990055e-40
-1.19052 0.03159754 2.6129408 3.0417257e-39
-1.1652305 0.059563294 2.5546336 8.3887093e-39
-1.1725519 0.042516213 2.5956936 5.4377233e-39
-1.1420144 0.041724898 2.6186495 6.7281104e-39
-1.1685375 0.066580534 2.5334229 1.9361054e-39
-1.1448239 0.072270148 2.5342188 5.4363024e-39
-1.1536853 0.051734429 2.5836532 7.5575109e-39
-1.117039 0.060503304 2.5849471 9.2181168e-39
-1.0806842 0.088205576 2.5348952 2.2973406e-39
-1.0849059 0.073943458 2.5705452 5.7161543e-39
-1.0908834 0.063550629 2.5945456 1.9364978e-39
-1.1973019 0.020576868 2.6380887 1.4012985e-45
-1.1564245 0.021766046 2.6627429 8.2651947e-40
-1.1281943 0.030798772 2.6575868 3.6863749e-39
-1.1382816 0.0072881933 2.714222 5.5245631e-40
-1.104496 0.050305657 2.6210461 8.4794686e-39
-1.1047511 0.041686937 2.6441548 7.2805695e-39
-1.088726 0.057032567 2.6136243 3.8704284e-39
-1.0762131 0.049623888 2.6421685 9.1252009e-39
-1.1016282 0.015926834 2.7158728 3.1317745e-39
-1.1178331 0.023694135 2.6838424 4.6068906e-39
-1.08708 0.02326712 2.7059608 5.5277735e-39
-1.0941224 0.029263237 2.684962 6.0816564e-39
-1.0625532 0.10045259 2.5141709 2.2055247e-39
-1.0438871 0.096909292 2.5364678 1.170162e-38
-1.0627159 0.072474681 2.5896401 2.0207579e-39
-1.0525973 0.086589813 2.5584073 3.137178e-39
-1.0275426 0.07971286 2.5940647 2.8494213e-39
-1.0278242 0.089396484 2.5677133 4.9717117e-39
-1.0412023 0.058207415 2.642848 7.0028938e-39
-1.0337152 0.055117626 2.6562989 7.1890927e-39
-1.0793583 0.017070726 2.7279644 4.9760361e-39
-1.0644708 0.037059348 2.6841154 7.3727637e-39
-1.0540454 0.032683618 2.703043 6.3586146e-39
-1.0057896 0.045831047 2.700423 2.2051449e-39
-1.0423594 0.066908345 2.6185546 4.5114762e-39
-1.0077794 0.053008616 2.6796772 1.5622866e-39
-0.98673987 0.04214808 2.7233591 2.6632336e-39
-0.97638553 0.059058927 2.6847343 1.5612062e-39
-1.1141067 -0.0089398623 2.7745414 2.7623096e-40
-1.1243942 -0.018929198 2.7945132 5.5173605e-40
-1.0956699 -0.011129813 2.793026 1.6580878e-39
-1.0823008 -0.023931187 2.8367214 3.6806365e-40
-1.091522 -0.035179749 2.8608224 2.8025969e-45
-1.092012 -0.042228777 2.8795307 5.6051939e-45
-1.0722739 -0.029397426 2.8583238 0
-1.094815 -0.054096673 2.9096801 0
-1.0816689 -0.063203342 2.9432433 1.4012985e-45
-1.1149986 0.0073609781 2.729898 1.4747755e-39
-1.0838881 5.6904042e-05 2.7708375 3.6860133e-39
-1.0747471 -0.0059951013 2.7934182 2.8555366e-39
-1.0484388 -0.015217634 2.836267 0
-1.0284367 -0.0094305957 2.834269 3.0828566e-44
-1.0621009 -0.0419202 2.8990884 4.2038954e-45
-1.0341046 -0.019113798 2.8565638 0
-1.0518399 -0.047800478 2.921968 1.4012985e-45
-1.0435389 -0.05435013 2.9453206 0
-1.0050298 -0.012660867 2.8589525 0
-0.98338175 -0.016900908 2.8851643 1.4012985e-45
-0.96752477 -0.0053438195 2.8647537 1.1048958e-39
-0.96463162 -0.013653168 2.889173 0
-0.99299264 -0.036599148 2.9318256 0
-0.98645532 -0.026360333 2.9086232 0
-1.0841687 0.0080983164 2.7489233 3.8700514e-39
-1.058938 0.0050827209 2.7742696 3.2264785e-39
-1.0353483 0.024766855 2.7371759 3.5956127e-39
-1.021423 0.015162935 2.772613 4.6352151e-40
-1.0083771 0.029460059 2.7428842 4.7009065e-39
-1.0295584 0.0056056171 2.7928853 6.4683797e-40
-1.0213071 -0.00026217717 2.814362 1.1985502e-39
-0.99724126 0.022273084 2.7698908 4.7891421e-39
-0.98163205 0.035492614 2.7448204 2.663235e-39
-0.95846975 0.039328709 2.7502477 2.0203851e-39
-0.94872987 0.033683948 2.772136 1.6530403e-39
-0.99208462 0.014168168 2.7953005 2.5800371e-39
-0.961613 0.012895592 2.8195114 7.189778e-39
-0.94736904 0.051101893 2.7260106 2.2040561e-39
-0.94302481 0.017417278 2.8199685 4.4249937e-39
-0.919855 0.023351803 2.8197317 4.9774276e-39
-1.0842292 -0.074625641 2.9723537 0
-1.0129849 -0.059391536 2.9797683 0
-0.91674638 0.025824312 2.8151717 5.4351687e-39
-0.96559674 0.057315927 2.6967978 2.0203851e-39
-1.0117751 0.067898378 2.6367295 3.9636946e-39
-1.0250398 0.087101012 2.5758126 7.7364875e-39
-1.0438871 0.096909292 2.5364678 1.170162e-38
-1.0765094 0.096555814 2.5151837 2.5757463e-39
-1.1611811 0.074832596 2.5161452 5.5317378e-40
-1.2492799 0.032337524 2.5708845 3.6989935e-40
-1.2144746 0.010193453 2.6544321 0
-1.1450293 0.0014791638 2.7253149 7.0064923e-45
-1.1273957 -0.019546282 2.7941341 8.2832294e-40
-1.092012 -0.042228777 2.8795307 5.6051939e-45
-1.0865643 -0.077193089 2.9776976 0
-0.97824669 -0.033946231 2.9347112 0
-0.95404088 -0.0029553566 2.8674936 1.6580612e-39
-0.92296368 0.020879293 2.8242917 4.5200465e-39
-0.45937178 0.60596281 1.5597719 1.4012985e-45
-0.44739783 0.5765788 1.6473136 1.4012985e-44
-0.44295987 0.60304976 1.5788299 8.4077908e-45
-0.43106675 0.5925234 1.6153736 1.821688e-44
-0.44029522 0.57296073 1.6619294 1.9618179e-44
-0.42853034 0.58281767 1.643322 3.7835059e-44
-0.40689898 0.62161279 1.5532664 1.821688e-44
-0.40846643 0.61305857 1.5753067 1.5414283e-44
-0.46086496 0.60187638 1.5697933 0
-0.45405719 0.57287836 1.6527702 4.2038954e-45
-0.45194966 0.56704617 1.6699622 1.821688e-44
-0.43561092 0.57049578 1.6717815 2.5223372e-44
-0.42123353 0.57928902 1.6578286 2.3822074e-44
-0.41804656 0.59397238 1.6203353 2.6624671e-44
-0.40160838 0.62099534 1.5585409 2.5223372e-44
-0.46225089 0.60872358 1.5503514 1.4012985e-45
-0.46302143 0.60444528 1.5613836 0
-1.1322016 -0.66997427 2.3356693 7.0968831e-39
-1.1400352 -0.6378957 2.3323855 6.2667511e-39
-1.1224209 -0.63086915 2.3559422 7.9280969e-39
-1.1357465 -0.61325574 2.3428059 6.9161324e-39
-1.1118127 -0.6902104 2.3571403 1.3096135e-38
-1.1126122 -0.64817679 2.3647242 6.4504333e-39
-1.0941465 -0.66153431 2.3851852 7.0954271e-39
-1.0493497 -0.72376925 2.4287279 8.4744449e-39
-1.0523665 -0.69453555 2.430912 7.7397231e-39
-1.0371432 -0.69741386 2.4494419 7.7415266e-39
-1.0236804 -0.73783559 2.4580905 1.0587398e-38
-1.022356 -0.6944263 2.4686232 4.4203287e-39
-1.0583084 -0.65975809 2.4305556 6.3571656e-39
-1.0342581 -0.67862701 2.4569042 5.1622308e-39
-0.92811054 -0.73064226 2.5795817 8.2007111e-39
-0.91919988 -0.74275601 2.5882974 4.1556319e-39
-1.0075612 -0.70729232 2.4845746 6.5419058e-39
-0.98866999 -0.74131382 2.5013475 1.0324837e-38
-0.99578667 -0.69113451 2.5026627 6.6369839e-39
-0.98360199 -0.68738097 2.5187318 6.7280893e-39
-0.97361004 -0.71524793 2.5255866 8.0170261e-39
-0.95031905 -0.73857903 2.5500698 8.3843919e-39
-0.9684695 -0.6809088 2.5390584 8.2907305e-39
-0.94561732 -0.66922355 2.5701447 8.0134346e-39
-0.9413107 -0.70300674 2.5686507 9.217035e-39
-0.92210102 -0.68714535 2.5960159 3.7004635e-39
-0.9400872 -0.63521814 2.5840373 7.9212249e-39
-1.1084499 -0.60539961 2.3786917 6.2671238e-39
-0.93615741 -0.63944155 2.5881097 7.7353847e-39
-0.98517948 -0.67383373 2.5195184 6.9131911e-39
-1.0431473 -0.6645304 2.4486206 4.7941784e-39
-1.1066806 -0.59200382 2.3836501 6.0816325e-39
-1.1448493 -0.61521053 2.3309748 7.1923718e-39
-1.1471136 -0.63232249 2.324635 6.7259482e-39
-1.1408656 -0.67116421 2.3245456 8.1139189e-39
-1.0493497 -0.72376925 2.4287279 8.4744449e-39
-0.99293613 -0.74068755 2.4961178 6.7234398e-39
-0.94987935 -0.74299604 2.5497196 8.2932739e-39
-0.91653669 -0.74344099 2.5915017 3.6920992e-39
-0.91713911 -0.69300741 2.6010494 2.3089195e-41
-0.92020851 -0.65277469 2.6054149 5.9920293e-39
-1.0924077 0.076287508 2.5381174 1.0045734e-38
-1.0941739 0.11069347 2.5429289 2.6643168e-39
-1.0382323 0.059162252 2.6026549 1.5615678e-39
-1.0290816 0.078149512 2.6180267 2.0207495e-39
-1.0695972 0.10082974 2.5717785 1.2166932e-38
-1.058002 0.10594478 2.5873857 7.9266816e-39
-1.0808954 0.12399898 2.5623236 2.1154604e-39
-1.0699023 0.14549145 2.5805206 2.0247109e-39
-1.0473448 0.13695768 2.6071057 2.3959962e-39
-0.92912549 0.026310515 2.7329645 2.1122234e-39
-1.018687 0.090830922 2.6336715 8.5723999e-39
-1.0053928 0.088099338 2.6498089 1.0786886e-38
-1.0190856 0.12226091 2.6395922 9.1943957e-40
-0.96876663 0.084641993 2.6950994 7.3468397e-40
-1.0038694 0.13840988 2.6620009 3.594196e-39
-0.99288619 0.10738966 2.6694562 6.4285548e-40
-0.96702516 0.10337415 2.7011135 9.2052697e-40
-0.96674472 0.15273069 2.7115502 4.4177896e-39
-0.94357836 0.078272343 2.7254303 1.3782583e-39
-0.93585539 0.052213661 2.729805 1.8367169e-39
-0.95023465 0.1029907 2.7221215 2.3949256e-39
-0.94096911 0.13677253 2.7406597 3.4083292e-39
-0.94667244 0.10986348 2.7279997 4.1477257e-39
-1.0657589 0.16294506 2.5892899 5.6210439e-39
-1.0474362 0.16719621 2.6131692 3.6860245e-39
-1.0315168 0.17279363 2.6343055 1.1034637e-39
-0.93317193 0.12980999 2.7490296 3.4090691e-39
-0.94737244 0.14395453 2.7340856 6.7258739e-39
-1.0164045 0.16468056 2.6516263 2.02542e-39
-1.0352094 0.17753652 2.6306369 2.7550649e-40
-1.0657589 0.16294506 2.5892899 5.6210439e-39
-1.0881124 0.12302444 2.5530612 2.113329e-39
-1.0926275 0.078496009 2.5382926 1.0137573e-38
-1.0421954 0.057091814 2.5972545 4.6025368e-40
-1.0098181 0.075787351 2.6417358 9.0344529e-39
-0.92912549 0.026310515 2.7329645 2.1122234e-39
-0.92686117 0.10108938 2.751087 4.1484502e-39
-0.85720932 -0.69462132 2.675983 2.3509886e-38
-0.88963032 -0.63047636 2.6483724 3.9597163e-39
-0.87983388 -0.61062902 2.6647305 2.8548205e-39
-0.88154978 -0.56291258 2.6723251 9.1835496e-40
-0.85088879 -0.66319549 2.6903412 1.1335466e-38
-0.85869467 -0.62170935 2.6890142 2.3509886e-38
-0.87888241 -0.58253521 2.6716657 7.4631699e-39
-0.84819007 -0.60289514 2.7060506 2.3509886e-38
-0.85474908 -0.56905198 2.7047279 2.0190843e-38
-0.84095776 -0.53570741 2.7288611 2.0283039e-38
-0.87107682 -0.49183083 2.7000008 1.1210388e-44
-0.87984842 -0.46563643 2.6943367 7.0064923e-45
-0.843126 -0.49911273 2.7336149 2.2680125e-38
-0.84833145 -0.4512049 2.7368658 1.3084938e-38
-0.81961739 -0.5579437 2.7511182 1.5487434e-38
-0.81593257 -0.52777064 2.7619104 1.1058776e-38
-0.82182038 -0.46267143 2.767817 2.3509886e-38
-0.89039165 -0.43884602 2.6865695 5.7161473e-39
-0.84221339 -0.41536683 2.7518716 2.3509886e-38
-0.83709973 -0.40916449 2.7595606 2.3509886e-38
-0.84218335 -0.36180043 2.7628536 3.8578111e-39
-0.8440308 -0.33379111 2.7662563 3.1256383e-39
-0.90327317 -0.27079067 2.7047286 1.1430816e-38
-0.91297466 -0.24777754 2.697247 9.4028809e-39
-0.89913303 -0.22548497 2.7191846 1.134188e-38
-0.84789729 -0.30230913 2.7678332 4.3198669e-39
-0.8640272 -0.25978601 2.756264 1.2814485e-38
-0.86739451 -0.23935813 2.7562089 1.4289245e-38
-0.87979364 -0.22541738 2.7434857 5.1626035e-39
-0.81547117 -0.41197067 2.7861497 1.6871073e-38
-0.80862558 -0.36647725 2.8040419 2.3509886e-38
-0.90897274 -0.19285965 2.7134933 1.3276913e-38
-0.88963032 -0.63047636 2.6483724 3.9597163e-39
-0.85088879 -0.66319549 2.6903412 1.1335466e-38
-0.81994575 -0.56402057 2.7494643 1.5394872e-38
-0.81545717 -0.53254479 2.7615318 1.170343e-38
-0.81110752 -0.45592186 2.7826495 1.0319424e-38
-0.8076514 -0.37626019 2.8032663 2.3509886e-38
-0.80959952 -0.35669431 2.8048174 2.3509886e-38
-0.86615556 -0.23131941 2.7594075 1.4751311e-38
-0.91423243 -0.18693393 2.7080984 1.4474387e-38
-0.90327317 -0.27079067 2.7047286 1.1430816e-38
-0.89566946 -0.47314835 2.6729329 7.3785483e-39
-0.88811952 -0.56047064 2.6645732 0
-1.2379141 0.018874835 2.3436525 2.0268619e-39
-1.2287042 0.02665115 2.3568082 3.5949149e-39
-1.2092319 0.027068537 2.3813477 4.7916196e-39
-1.1511165 -0.07739751 2.4329879 2.3985115e-39
-1.1891637 0.016313408 2.4043531 5.6177733e-39
-1.1643829 0.0046361689 2.4330878 6.0783857e-39
-1.1359963 -0.052045025 2.4571567 1.0695069e-38
-1.1145099 -0.098655567 2.4746168 0
-1.1276916 -0.080227703 2.461828 0
-1.1131985 -0.070843413 2.4819465 4.0555413e-39
-1.0852487 -0.06969697 2.5172815 8.943346e-39
-1.1353734 -0.021626629 2.4641538 8.1113867e-39
-1.1161833 -0.04238781 2.4840117 9.1266471e-39
-1.1405926 0.0036841754 2.4627709 3.4998046e-39
-1.1210835 -0.010753877 2.4843214 7.3647763e-40
-1.0739946 -0.030166624 2.5394914 4.697273e-39
-1.0375293 -0.098804541 2.5712626 1.2262761e-38
-1.0427517 -0.069905341 2.5706091 8.1106945e-39
-1.0245392 -0.092454173 2.5888734 9.5905231e-39
-1.019552 -0.067986533 2.6001363 8.2046656e-39
-0.98215818 -0.10900495 2.6387165 1.8730036e-40
-0.99208784 -0.090255454 2.6300771 6.9139506e-39
-0.99138308 -0.059781455 2.6371884 5.5209478e-40
-1.0255889 -0.047568928 2.5967262 1.3839896e-39
-1.1511165 -0.07739751 2.4329879 2.3985115e-39
-1.0878295 -0.090046078 2.5098829 3.3190132e-39
-1.0240223 -0.097645573 2.5884619 1.1802142e-38
-0.98181534 -0.12432089 2.6360178 2.9020891e-42
-0.97664863 -0.10708661 2.6460273 3.2832423e-42
-0.99206984 -0.057391472 2.6368144 3.6843079e-40
-1.0255889 -0.047568928 2.5967262 1.3839896e-39
-1.0862457 -0.026382662 2.524879 3.9607855e-39
-1.1417257 0.013712571 2.463397 1.293973e-39
-1.1918986 0.026315402 2.402962 4.9699138e-39
-1.2274958 0.029158758 2.3588381 3.7800348e-39
-1.1862879 0.0027354402 2.4051902 5.7081599e-39
-1.2257414 -0.13084152 2.3283508 9.2202636e-41
-1.2406526 -0.10632565 2.3146336 4.9045446e-44
-1.2279505 -0.10556579 2.3307407 3.7835059e-44
-1.2494804 -0.078282423 2.3092763 9.3692217e-41
-1.2313827 -0.07529851 2.3326147 1.849365e-39
-1.245562 -0.0444199 2.3211167 3.2311967e-39
-1.2245653 -0.051270504 2.3460855 4.3404267e-39
-1.218321 -0.099630222 2.3440468 1.1294466e-42
-1.2134688 -0.07728117 2.3547068 1.1434595e-42
-1.2091169 -0.032552432 2.3693109 2.5851028e-39
-1.2231302 -0.024571337 2.3533428 3.3244727e-39
-1.2538089 -0.04345252 2.3109572 1.5713166e-39
-1.2546986 -0.086739041 2.3009953 5.1848043e-44
-1.2444195 -0.11400961 2.3083329 3.5032462e-44
-1.20653 -0.094337814 2.3599355 1.1392557e-42
-1.1977417 -0.033794496 2.3833423 1.2611686e-44
-1.2115026 -0.022468608 2.3683748 3.7861683e-39
-1.2148237 -0.021650549 2.3643711 5.4442281e-39
-1.0968897 -0.23100582 2.4697042 3.0402782e-39
-1.0735904 -0.23672602 2.4977956 0
-1.034014 -0.30244651 2.53407 5.0621206e-39
-0.98867536 -0.30768001 2.5899396 2.7551209e-40
-1.035991 -0.27602339 2.5369859 7.1847613e-39
-1.0549296 -0.25917339 2.5166447 3.4072572e-39
-1.0173386 -0.28747624 2.5580704 4.3270723e-39
-1.0213419 -0.26343125 2.5579557 1.8406672e-39
-0.99788499 -0.28523523 2.5829589 4.6954835e-39
-0.96583277 -0.2944546 2.6213288 2.9426833e-39
-0.91820633 -0.35556135 2.6686549 4.60582e-39
-0.95162082 -0.31074119 2.6358488 6.5397408e-39
-0.92587817 -0.31807184 2.6666799 6.9088765e-39
-0.90063065 -0.38045779 2.6856406 6.6388e-39
-0.88421637 -0.38776821 2.704761 6.4574075e-40
-0.8812753 -0.36693761 2.7127101 1.3815205e-39
-0.9029215 -0.33564273 2.69192 5.9876573e-39
-0.88744861 -0.32739294 2.713037 8.0112556e-39
-0.90204346 -0.38010979 2.6839373 7.6522527e-39
-0.98339611 -0.31157359 2.5957737 0
-1.0262815 -0.30989498 2.542259 5.7964515e-39
-1.0970401 -0.2391912 2.4678426 6.3538922e-39
-1.0949644 -0.21994466 2.4743819 0
-1.0676889 -0.24139211 2.5042536 0
-1.0216933 -0.25494471 2.5592484 9.2917299e-41
-1.0077866 -0.26658911 2.5743334 2.1161709e-39
-0.98788583 -0.28423196 2.5957215 4.4210588e-39
-0.95401204 -0.30439264 2.6341429 7.6500625e-39
-0.91576499 -0.31709227 2.6795805 6.6362721e-39
-0.88791633 -0.32269472 2.7134097 6.9045731e-39
-0.87756151 -0.3697134 2.7168069 2.7660931e-40
-0.88374853 -0.39246646 2.7043884 1.291829e-39
-1.2180673 -0.65474951 2.2309456 5.0670952e-42
-1.2024449 -0.65947354 2.2495999 1.7556868e-39
-1.2112982 -0.58141959 2.2544289 4.1513271e-39
-1.2009674 -0.6206795 2.2593818 1.7546106e-39
-1.1888683 -0.59713548 2.2793865 4.8856523e-39
-1.2057513 -0.55879021 2.2660189 2.8616701e-39
-1.1794912 -0.59931082 2.2907186 4.5161369e-39
-1.2180673 -0.65474951 2.2309456 5.0670952e-42
-1.2020603 -0.54735541 2.2729907 3.7908206e-39
0.35911065 -0.050852548 1.4508771 2.676239e-39
0.37081587 -0.062407706 1.4461577 2.8613506e-39
0.38527119 -0.015854029 1.4134475 2.2156182e-39
0.36769018 -0.032483302 1.4355561 2.4914877e-39
0.39207977 -0.050419237 1.4230086 3.0450216e-39
0.39734283 0.0035156391 1.3947527 2.2141707e-39
0.40987462 -0.037348464 1.4022933 2.8609876e-39
0.41248423 -0.012739122 1.389226 2.5829588e-39
0.43631989 -0.028067857 1.3759913 3.6846302e-40
0.41675434 0.014125703 1.3737681 1.8440948e-40
0.42874026 0.0038321051 1.3682555 9.1856516e-41
0.43815655 -0.033767086 1.3769683 1.0141926e-39
0.38946152 -0.064720355 1.4315273 3.0457376e-39
0.36038789 -0.066707171 1.456812 2.7702297e-39
0.35170081 -0.052736834 1.4579303 2.9510267e-39
0.35933155 -0.022084095 1.4379768 2.2152581e-39
0.3905282 0.0065538711 1.3991307 1.8468189e-39
0.40845436 0.026440188 1.375293 5.5283887e-40
0.41327658 0.02603459 1.371424 1.6815582e-44
-0.26218319 0.1926108 1.8648372 1.0166785e-39
-0.24691422 0.21471816 1.8422484 4.6116032e-39
-0.27915025 0.24197392 1.8572638 1.1988688e-38
-0.19214161 0.25938836 1.7765251 7.195599e-39
-0.15579216 0.23233561 1.757967 3.964073e-39
-0.13467637 0.27642012 1.7207568 4.0613133e-39
-0.14597552 0.27972591 1.728781 1.1252197e-38
-0.21218607 0.22765042 1.8073792 5.5300016e-39
-0.22338748 0.25086862 1.8065207 2.5019259e-39
-0.1404718 0.22775885 1.7471285 5.5310329e-39
-0.14566942 0.28429061 1.7265065 1.6962547e-38
-0.23047747 0.2518495 1.8120391 2.2296466e-39
-0.28868386 0.24656904 1.8632361 1.8067823e-38
-0.29277173 0.23840156 1.8702776 1.1531324e-38
-0.24518172 0.20863765 1.8434815 5.5303323e-39
-0.16399449 0.23112832 1.7653863 5.3466837e-39
-0.14789174 0.22683167 1.7537673 7.4664307e-39
0.19567057 0.28922534 1.4377779 1.458244e-38
0.17004055 0.3037276 1.4528842 1.6317473e-38
0.13864842 0.33643636 1.4647809 1.4747297e-38
0.17959268 0.3019599 1.4456466 1.5400293e-38
0.17425916 0.37732837 1.4168134 1.3002705e-38
0.14348383 0.3721053 1.444957 1.8065998e-38
0.1565979 0.31678283 1.4583988 1.5853641e-38
0.17637578 0.2952044 1.4513328 1.7705189e-38
0.19342566 0.28161925 1.4430238 1.4482319e-38
0.18754928 0.36894989 1.4093598 1.3375751e-38
0.18150762 0.39425334 1.4032481 1.2819394e-38
0.14239149 0.37270376 1.4456097 1.824895e-38
0.13864842 0.33643636 1.4647809 1.4747297e-38
0.023408139 0.31385696 1.5715021 2.9553118e-39
0.0042209607 0.30157533 1.5930372 7.1861794e-39
0.026938602 0.28179854 1.5827072 5.0750953e-39
0.03557374 0.32182446 1.5577681 8.5724041e-39
0.027677493 0.33209714 1.5598564 2.8304267e-40
0.0039533484 0.31484622 1.5873969 8.3926357e-39
-0.0036220003 0.30849573 1.5965627 8.6566025e-39
0.019699182 0.27622655 1.5912472 1.1121279e-39
0.035979308 0.28462449 1.5738686 5.809052e-39
0.043230258 0.32115883 1.5516347 1.354263e-38
0.036187369 0.32945573 1.55388 4.0558973e-39
-0.11480443 -0.62981379 2.1046016 2.0101914e-38
-0.083129309 -0.61271894 2.0704556 2.3234379e-38
-0.028007537 -0.59656239 2.0170414 2.3509886e-38
-0.048105866 -0.61195958 2.0407186 2.3509886e-38
0.00018208688 -0.60118258 1.9954189 2.3509886e-38
-0.11588443 -0.62485158 2.1033151 2.0009721e-38
-0.088349015 -0.61532634 2.07599 2.3326215e-38
-0.032621231 -0.58802623 2.0171421 2.3509886e-38
0.0079628024 -0.59075743 1.9842793 2.3509886e-38
0.0069445074 -0.60372603 1.9908661 2.3509886e-38
-0.023942811 -0.61041141 2.0197499 2.3509886e-38
-0.048105866 -0.61195958 2.0407186 2.3509886e-38
-1.3183693 0.90840304 2.4351258 3.0438739e-39
-1.2972522 0.91802371 2.4131463 3.1353633e-39
-1.2718405 0.9039759 2.3980224 2.7683898e-39
-1.2339854 0.89286423 2.3711548 2.8598512e-39
-1.252606 0.89805704 2.3844914 2.7680185e-39
-1.1758912 0.86607224 2.3342271 2.9516951e-39
-1.1947174 0.90353423 2.3334744 2.6761858e-39
-1.1965954 0.85572058 2.3561831 3.0442494e-39
-1.219054 0.89306593 2.358531 2.8602085e-39
-1.2976656 0.91992319 2.4126537 3.1360807e-39
-1.2718405 0.9039759 2.3980224 2.7683898e-39
-1.2295625 0.8874442 2.3698373 2.9516895e-39
-1.168509 0.8566159 2.3322096 3.4112383e-39
-1.1811103 0.87592655 2.3342533 2.8594939e-39
-1.2259691 0.90187764 2.3604417 2.8609302e-39
-1.0771619 -0.84760815 3.0087392 2.0565765e-38
-1.0653995 -0.81887603 2.9861665 1.8727983e-38
-1.0480658 -0.89996719 3.0074549 2.1947603e-38
-1.038216 -0.89280427 2.9960203 2.3509886e-38
-1.0407516 -0.81253088 2.9626703 2.3509886e-38
-0.99188554 -0.94022667 2.9780858 2.3509886e-38
-1.0019556 -0.92191499 2.9784465 2.3509886e-38
-1.0407516 -0.81253088 2.9626703 2.3509886e-38
-1.0771619 -0.84760815 3.0087392 2.0565765e-38
-1.0551407 -0.89564538 3.0114839 2.0662985e-38
-0.98811638 -0.94356596 2.9763975 2.3509886e-38
-1.037302 -0.84010667 2.9719625 2.3509886e-38
-0.48161811 0.1619903 2.0625815 2.3938396e-39
-0.51061332 0.1402951 2.0965111 2.5279424e-42
-0.51565409 0.16184407 2.0912187 1.5666265e-39
-0.45431378 0.15743876 2.0416718 3.5009032e-39
-0.44855934 0.13976316 2.0446529 9.4734783e-41
-0.44855934 0.13976316 2.0446529 9.4734783e-41
-0.51565409 0.16184407 2.0912187 1.5666265e-39
-0.46764794 0.16962649 2.0474787 4.7927196e-39
-0.44080064 0.15231641 2.0325916 3.0409998e-39
-1.0889866 -0.21355003 2.7384319 3.5873241e-43
-1.1134144 -0.23400821 2.7679806 0
-1.0953521 -0.24427685 2.7573559 0
-1.1188329 -0.23304152 2.7721021 0
-1.0962404 -0.20777673 2.7419696 0
-1.0877863 -0.21744445 2.7391455 7.1746481e-43
-1.1126753 -0.26133421 2.7794373 0
-1.1179698 -0.24223858 2.7754421 0
-0.36203009 0.18419152 1.9523777 2.2159756e-39
-0.35735381 0.21228459 1.9360356 2.4954309e-39
-0.33158752 0.22073665 1.9106699 3.1397283e-39
-0.3549459 0.1826788 1.9470991 8.3340404e-40
-0.32653332 0.2276355 1.903378 7.4707453e-39
-0.36049315 0.21594301 1.937054 4.7124462e-39
-0.35750067 0.18061593 1.9501555 3.1346893e-39
-1.3158635 0.75405902 2.5012374 6.6391265e-39
-1.3425333 0.71469653 2.5410233 0
-1.3381765 0.75690353 2.5187116 4.2416814e-39
-1.3381765 0.75690353 2.5187116 4.2416814e-39
-1.3301418 0.70091558 2.5367117 0
-1.3443422 0.70551074 2.5466015 0
-1.348361 0.73359263 2.5375638 0
-1.0056546 -0.36859626 2.7370021 4.4149576e-39
-0.96010011 -0.36216387 2.6959171 4.0486876e-39
-0.94113761 -0.3576819 2.6780174 5.525261e-39
-0.98030794 -0.36581269 2.7144938 1.0101919e-39
-0.93057013 -0.36908618 2.6741865 6.3604125e-39
-0.95323437 -0.34305125 2.6817062 6.7205812e-39
-1.0056546 -0.36859626 2.7370021 4.4149576e-39
-0.51964676 -0.34691033 2.3194242 1.2451121e-38
-0.50788897 -0.33456406 2.3040972 1.7240957e-38
-0.53017825 -0.32235882 2.317414 1.1989423e-38
-0.53201985 -0.32384208 2.3196156 1.2173451e-38
-0.51449168 -0.31473905 2.3008776 1.4845699e-38
-0.50264937 -0.34305325 2.3034501 1.7885599e-38
-0.5177502 -0.35549489 2.3216259 1.2451127e-38
-0.64055932 -0.88419861 2.4264207 1.5960715e-38
-0.62449437 -0.85520041 2.4270008 1.6236941e-38
-0.59854025 -0.87490535 2.42413 1.669684e-38
-0.55190015 -0.8781333 2.4208131 1.7342558e-38
-0.55186063 -0.86780041 2.4214015 1.7434752e-38
-0.68174428 -0.8251214 2.4325674 1.5223145e-38
-0.65996099 -0.81320494 2.4317863 1.5407177e-38
-0.64260292 -0.79211605 2.4318271 1.5498654e-38
-0.66400856 -0.77613449 2.4341791 1.5038026e-38
-0.66456097 -0.74923486 2.4357555 1.4852912e-38
-0.64227068 -0.70882297 2.4365706 1.4942588e-38
-0.6157428 -0.82352203 2.4282258 1.6328053e-38
-0.64532542 -0.74598986 2.434649 1.5128785e-38
-0.60787064 -0.76854408 2.4308429 1.5774523e-38
-0.57989395 -0.75532711 2.4297202 1.6235497e-38
-0.53403223 -0.83201033 2.4222522 1.6229686e-38
-0.53489256 -0.78735107 2.4248652 1.595202e-38
-0.57406026 -0.72531736 2.4310455 1.5591208e-38
-0.5355199 -0.7344439 2.4279346 1.6044928e-38
-0.61881161 -0.69201231 2.4359572 1.4944746e-38
-0.57162517 -0.7058267 2.4319971 1.5771623e-38
-0.57459795 -0.68777895 2.4332294 1.5864544e-38
-0.54950035 -0.68189484 2.4318805 1.6415504e-38
-0.55409956 -0.65064323 2.4339778 1.6784292e-38
-0.50611186 -0.77876347 2.4234235 1.6228971e-38
-0.47467467 -0.78165734 2.4211466 1.6506633e-38
-0.50643849 -0.71861428 2.426887 1.5584317e-38
-0.47090468 -0.74763036 2.4228401 1.659882e-38
-0.44714177 -0.74240637 2.4215431 1.7524773e-38
-0.51291972 -0.67663646 2.4297242 1.6691001e-38
-0.47297463 -0.71637583 2.4247677 1.5491405e-38
-0.47771189 -0.68726653 2.4267516 1.7152702e-38
-0.48352775 -0.6524269 2.4291358 1.7797705e-38
-0.44090518 -0.71980417 2.4224176 1.881372e-38
-0.68937683 -0.84075218 2.4321856 1.5314983e-38
-0.55190015 -0.8781333 2.4208131 1.7342558e-38
-0.53110957 -0.83878922 2.4216681 1.5675437e-38
-0.4502444 -0.74960238 2.4213398 1.7155632e-38
-0.44090518 -0.71980417 2.4224176 1.881372e-38
-0.48350769 -0.64718831 2.4294341 1.7705147e-38
-0.64074939 -0.69184071 2.4374402 1.4757835e-38
-0.6671555 -0.74224597 2.4363296 1.466852e-38
-0.68854272 -0.81304532 2.4337149 1.5406455e-38
-1.3040285 -0.52727193 2.4914062 2.5836426e-39
-1.3015449 -0.51432002 2.4919806 2.6765543e-39
-1.2783656 -0.53498799 2.4892411 2.7673108e-39
-1.2493354 -0.54188591 2.4868965 2.767308e-39
-1.3091735 -0.4926523 2.4937327 3.1357304e-39
-1.3038602 -0.46050251 2.4952159 3.5963484e-39
-1.337589 -0.41389805 2.5001473 4.0569664e-39
-1.326667 -0.37289828 2.50176 4.6097675e-39
-1.3428149 -0.37296015 2.502841 4.6086997e-39
-1.310912 -0.42449233 2.4977498 4.1491551e-39
-1.2892994 -0.48212346 2.493 3.4123159e-39
-1.2864773 -0.39795876 2.4976265 4.7934413e-39
-1.3263863 -0.34324488 2.5034378 5.0696638e-39
-1.3394825 -0.32910299 2.505127 5.0696624e-39
-1.3195835 -0.31829324 2.5044091 4.8856327e-39
-1.3275809 -0.29303887 2.506391 4.1476977e-39
-1.31314 -0.27002063 2.5067384 1.3825659e-39
-1.2728764 -0.2882615 2.5029902 3.0435264e-39
-1.2796195 -0.27135497 2.5044103 2.1197596e-39
-1.2762655 -0.48542643 2.491936 3.7785719e-39
-1.2752686 -0.53832942 2.4888415 2.6751166e-39
-1.3045086 -0.52973986 2.4912972 2.6758383e-39
-1.3217586 -0.496831 2.494339 2.7683898e-39
-1.3429593 -0.41068509 2.5006919 4.1488033e-39
-1.3427943 -0.36757085 2.5031478 4.5172285e-39
-1.3419771 -0.31688148 2.5059936 4.7948692e-39
-1.3273435 -0.26835048 2.5077875 0
-1.2821212 -0.26602155 2.5048835 1.659143e-39
-1.2728764 -0.2882615 2.5029902 3.0435264e-39
-1.2867745 -0.40374473 2.4973154 4.7934413e-39
-1.2864416 -0.45591632 2.494308 3.4137564e-39
-0.29733714 0.80773062 2.5001805 0
-0.26359496 0.81347209 2.4982429 0
-0.25559413 0.81954974 2.4980531 0
-0.24365115 0.83633912 2.4982119 0
-0.19209644 0.80787224 2.4931202 0
-0.21551982 0.82953453 2.4959328 0
-0.1559906 0.84211677 2.4926546 0
-0.13941965 0.80311525 2.48931 0
-0.112137 0.81175989 2.4879723 0
-0.097163379 0.81837541 2.487345 0
-0.24307778 0.84448403 2.4986393 0
-0.30650845 0.81482089 2.5012023 0
-0.29777169 0.79722446 2.4996085 0
-0.24886416 0.80705887 2.4968863 0
-0.13940895 0.78934914 2.4885216 0
-0.097188875 0.81171429 2.4869657 0
-1.1174312 -0.29529655 2.4921472 6.8213247e-39
-1.1003779 -0.29651672 2.4909317 2.119768e-39
-1.0588193 -0.28092206 2.4890332 3.5930862e-39
-1.0409966 -0.26370245 2.488821 5.5263008e-39
-1.02466 -0.28156173 2.486702 5.3415816e-39
-1.109674 -0.28130981 2.4924264 4.423179e-39
-1.0453869 -0.25732139 2.4894812 4.6954653e-39
-1.0150907 -0.27457657 2.486459 5.5255987e-39
-1.0564525 -0.29318729 2.4881723 3.2261128e-39
-1.1229899 -0.31000942 2.4916785 8.1145845e-39
-1.1229309 -0.29458302 2.4925573 9.4016771e-39
-1.2396709 0.052278295 2.5202458 5.6051939e-45
-1.1997796 0.07203915 2.518697 6.8210333e-39
-1.1541183 0.064403981 2.5151932 8.3872758e-39
-1.1415524 0.08078175 2.5152867 9.4014333e-39
-1.1587156 0.058367494 2.5151565 8.2032376e-39
-1.2181126 0.064449891 2.5194941 4.8845705e-39
-1.1407884 0.096768327 2.51615 1.0784017e-38
-1.1304333 0.078166813 2.5143898 9.5851029e-39
-1.1483636 0.057956442 2.5144377 8.1110476e-39
-0.49347541 -0.45233196 2.4412532 1.4940775e-38
-0.45611486 -0.46333554 2.4381142 1.5493955e-38
-0.46921003 -0.44185522 2.440223 1.5125169e-38
-0.42667538 -0.47469983 2.4354866 1.5863095e-38
-0.4422932 -0.43822283 2.438623 1.5217011e-38
-0.41707113 -0.38773721 2.4398177 1.4940775e-38
-0.3972311 -0.41191444 2.4371014 1.521736e-38
-0.40627292 -0.37907314 2.4395881 1.4756023e-38
-0.40621513 -0.36398315 2.4404476 1.4571992e-38
-0.38592145 -0.41320908 2.4362679 1.5033328e-38
-0.45611486 -0.46333554 2.4381142 1.5493955e-38
-0.49784642 -0.45289549 2.4415147 1.4848938e-38
-0.41705465 -0.38342583 2.4400632 1.5032614e-38
-0.38534802 -0.40303802 2.4368112 1.5216278e-38
-1.0816412 -0.096776113 2.5011027 0
-1.0577765 -0.094513297 2.4996293 2.8025969e-45
-1.0663403 -0.065449238 2.5018675 7.3756658e-39
-1.0303715 -0.07739263 2.4987686 1.0418853e-38
-1.0816412 -0.096776113 2.5011027 0
-1.0361875 -0.058450773 2.5002427 8.0203121e-39
-1.0186977 -0.082172163 2.4977107 1.0880204e-38
-1.0276023 -0.091087624 2.4977987 1.1616675e-38
-1.0599453 -0.094521612 2.4997745 4.2038954e-45
-0.31873047 -0.41133389 2.4318624 1.5124083e-38
-0.30823702 -0.38424677 2.4327075 1.4847136e-38
-0.28955171 -0.38911241 2.4311743 1.5032607e-38
-0.26841542 -0.33240977 2.4329991 1.355676e-38
-0.28999734 -0.39769033 2.4307132 1.5125876e-38
-0.32218051 -0.40787953 2.4322917 1.5031532e-38
-0.30124933 -0.36826923 2.4331522 1.4754573e-38
-0.28031805 -0.32865894 2.4340129 1.4847117e-38
-0.25138327 -0.33926567 2.4314628 1.530992e-38
-0.28208598 -0.37988764 2.4312005 1.5308838e-38
-1.1637568 -0.1642963 2.5027544 0
-1.2140605 -0.12985449 2.5081041 0
-1.1822113 -0.16041505 2.504216 0
-1.1846923 -0.12526909 2.5063937 0
-1.1922067 -0.086342618 2.5091259 2.3059627e-39
-1.1661507 -0.14213131 2.5041835 0
-1.1460552 -0.11345637 2.5044746 0
-1.1451793 -0.074813619 2.5066268 7.3976227e-40
-1.1460552 -0.11345637 2.5044746 0
-1.1922067 -0.086342618 2.5091259 2.3059627e-39
-1.1953683 -0.15397832 2.5054679 0
-1.1675048 -0.17064865 2.5026426 0
-1.1581627 -0.16203794 2.5025079 0
-1.0903804 -0.74279046 2.4647245 1.0872612e-38
-1.0567263 -0.72323984 2.4635828 5.711792e-39
-1.0216876 -0.72704601 2.4610114 8.8478728e-39
-1.0071545 -0.71578807 2.4606795 5.6239096e-39
-0.99266529 -0.68427813 2.4615097 7.2794625e-39
-1.0198941 -0.68975937 2.4630246 7.7368687e-39
-1.0567263 -0.72323984 2.4635828 5.711792e-39
-1.0862858 -0.74387324 2.4643877 1.142254e-38
-0.99910635 -0.72163379 2.4598043 2.1176086e-39
-0.9899444 -0.68155396 2.4614828 7.9237445e-39
-1.0198941 -0.68975937 2.4630246 7.7368687e-39
-1.0441812 0.094415054 2.5095265 3.9568605e-39
-1.0496328 0.12619777 2.5117114 5.7117976e-39
-1.0379117 0.12400573 2.5107987 5.8076212e-39
-1.0399802 0.14851342 2.5123396 1.1938825e-39
-1.0512656 0.13737622 2.5124607 1.0101933e-39
-1.049955 0.090634219 2.5096979 2.1122514e-39
-1.0402044 0.089920394 2.5090022 2.6632294e-39
-1.0379715 0.1083469 2.5099065 1.1428291e-38
-1.0378945 0.12847967 2.5110536 0
-1.1026115 -0.66580176 2.4699512 6.0827241e-39
-1.1063738 -0.62303281 2.4726512 7.1869263e-39
-1.1265404 -0.60634702 2.4749606 6.4493459e-39
-1.1300417 -0.60985273 2.4749949 6.2656721e-39
-1.1015151 -0.67846948 2.4691527 7.2772989e-39
-1.0950872 -0.65101171 2.4702921 4.7934469e-39
-1.1091214 -0.61186796 2.4734745 7.4606363e-39
-1.1300017 -0.59937567 2.4755919 6.4482697e-39
-0.68486702 -0.16139911 2.1980486 7.2307001e-43
-0.64280832 -0.16460486 2.1897621 2.1678087e-42
-0.61233312 -0.16820069 2.1829221 9.2232204e-40
-0.7057904 -0.16652617 2.1977534 7.2838331e-39
-0.66440099 -0.12505536 2.2189226 0
-0.70571548 -0.091695011 2.2469137 2.5335476e-42
-0.6800909 -0.10775951 2.2325928 1.5414283e-44
-0.68035316 -0.068432987 2.2584729 0
-0.6427182 -0.15157123 2.1983135 3.643376e-43
-0.63871419 -0.13089417 2.2113121 0
-0.61766684 -0.14024024 2.2020786 2.8025969e-45
-0.64977002 -0.10618332 2.2291737 0
-0.64575982 -0.072556108 2.2506809 0
-0.60025012 -0.11145279 2.2184355 1.4012985e-45
-0.61007059 -0.090808801 2.2334433 1.4012985e-45
-0.61411297 -0.057330824 2.2560358 0
-0.6749227 -0.040576547 2.2759793 0
-0.64790773 -0.041564718 2.2713609 0
-0.61499405 -0.037226513 2.2693756 0
-0.58549827 -0.1440445 2.1948524 1.4012985e-45
-0.54020655 -0.15992312 2.1777639 7.2166871e-43
-0.51932681 -0.12830684 2.195471 0
-0.49716344 -0.13966595 2.1847506 0
-0.57351464 -0.094591193 2.2255869 0
-0.58568662 -0.064521566 2.247134 1.4012985e-45
-0.55484736 -0.096111163 2.2218456 0
-0.54963809 -0.063978888 2.2421942 0
-0.54495895 -0.097968295 2.2191725 0
-0.50784594 -0.10432294 2.2095439 0
-0.49588358 -0.063148856 2.2348418 0
-0.59980714 0.0016167443 2.2926679 1.4012985e-45
-0.54180133 -0.037608791 2.2583702 1.4433374e-42
-0.55240703 -0.005544628 2.2809978 9.2915897e-41
-0.52015388 -0.045518741 2.2499924 0
-0.4773044 -0.039626632 2.2475681 2.8025969e-45
-0.50542939 -0.0092885755 2.2716355 5.6051939e-45
-0.54206836 0.013069659 2.2917104 7.3758326e-40
-0.48188984 -0.16423723 2.1663609 0
-0.46890655 -0.13268259 2.1851881 0
-0.42647672 -0.11838983 2.1883457 0
-0.47608519 -0.091001883 2.2136307 0
-0.43647298 -0.10311913 2.1998487 0
-0.44755024 -0.072205447 2.2217891 0
-0.40773052 -0.10411439 2.1949716 5.6051939e-45
-0.40922746 -0.07009948 2.2175424 0
-0.44889006 -0.043787424 2.2406595 0
-0.44479582 -0.025593551 2.252013 1.8439686e-40
-0.48231229 -0.019737411 2.2613733 1.8439686e-40
-0.45606333 0.015654571 2.2807724 4.2038954e-45
-0.43041041 0.021612201 2.2809184 1.4012985e-45
-0.40298375 -0.034102965 2.2402782 9.1842503e-41
-0.40982199 -0.013172345 2.2550364 4.6098375e-40
-0.38657904 -0.0032672775 2.2581301 2.7659109e-40
-0.40645379 0.016103292 2.2737784 4.2038954e-45
-0.37857699 -0.005663245 2.2553799 3.6878252e-40
-0.395015 0.035031438 2.2845354 1.1210388e-44
-0.46478093 0.02332866 2.2870958 1.4012985e-45
-0.59980714 0.0016167443 2.2926679 1.4012985e-45
-0.69100112 -0.030746037 2.2848012 8.4077908e-45
-0.71897364 -0.10280818 2.2415593 1.3729922e-41
-0.68228954 -0.17696607 2.1874406 9.473198e-41
-0.54704499 -0.16617896 2.1746578 1.4405348e-42
-0.48438358 -0.16418253 2.1667633 0
-0.40024096 -0.12465683 2.1803727 0
-0.39146042 -0.085571356 2.2047656 2.8025969e-45
-0.38974029 -0.035788409 2.2372248 7.0064923e-45
-0.2283105 -0.52268326 1.8935704 2.1027094e-38
-0.19122638 -0.50274885 1.9012206 2.0194832e-38
-0.14831086 -0.51276255 1.8883352 2.2128763e-38
-0.14655809 -0.47344911 1.9139106 2.0555301e-38
-0.092502572 -0.46888146 1.9089698 2.055602e-38
-0.045546498 -0.49099362 1.8875408 2.074005e-38
-0.054557107 -0.4850893 1.8927444 2.1015912e-38
-0.059773993 -0.47047716 1.9031125 2.1199943e-38
-0.023483893 -0.48677084 1.8870739 2.092444e-38
