# .PCD v0.7 - Point Cloud Data file format
VERSION 0.7
FIELDS x y z rgb
SIZE 4 4 4 4
TYPE F F F F
COUNT 1 1 1 1
WIDTH 1004
HEIGHT 1
VIEWPOINT 0 0 0 1 0 0 0
POINTS 1004
DATA ascii
0.095214538 0.3238233 1.4919415 2.3509528e-38
0.094118498 0.30537382 1.4848059 2.3509528e-38
0.094054341 0.29596195 1.4809589 2.3509528e-38
0.085295461 0.26505867 1.4718994 2.3509528e-38
0.077813916 0.2482153 1.4680929 2.3509528e-38
0.077136002 0.23087241 1.4612384 2.3509528e-38
0.086891159 0.19318354 1.4416507 2.3509528e-38
0.085853219 0.17797968 1.435827 2.3509528e-38
0.095947966 0.16394417 1.4258326 2.3509528e-38
0.095112018 0.14307696 1.4175934 2.3509528e-38
0.093025863 0.12585957 1.4113789 2.3509528e-38
0.091858409 0.1192622 1.4091512 2.3509528e-38
0.085204527 0.075482845 1.3939126 2.3509528e-38
0.084187947 0.055313349 1.3860362 2.3509528e-38
0.07560204 0.0072683296 1.3698492 2.3509528e-38
0.075478159 -0.04473307 1.3484983 2.3509528e-38
0.076142259 -0.059664927 1.3420753 2.3509528e-38
0.074087426 -0.081092067 1.334115 2.3509528e-38
0.0820067 -0.13147675 1.3100691 2.3509528e-38
0.082717426 -0.17446186 1.2920806 2.3509528e-38
0.082608312 -0.19348024 1.2842988 2.3509528e-38
0.085027874 -0.23454672 1.2663859 2.3509528e-38
0.085459262 -0.25511122 1.2577417 2.3509528e-38
0.085328005 -0.27490935 1.2496481 2.3509528e-38
0.085128114 -0.29405123 1.2418532 2.3509528e-38
0.084638663 -0.31436771 1.2336962 2.3509528e-38
0.082878776 -0.33240211 1.2270088 2.3509528e-38
0.083447784 -0.34362033 1.2221539 2.3509528e-38
0.077883974 -0.36623716 1.21517 2.3509528e-38
0.088747077 -0.38690984 1.202123 2.3509528e-38
0.085128412 -0.40872058 1.194658 2.3509528e-38
0.078848891 -0.44517064 1.1822798 2.3509528e-38
0.084214464 -0.46085611 1.1735822 2.3509528e-38
0.085682482 -0.46312121 1.1720368 2.3509528e-38
0.11576136 -0.4580988 1.1615368 2.3509528e-38
0.12827481 -0.45719054 1.1566826 2.3509528e-38
0.14494801 -0.45333168 1.1513046 2.3509528e-38
0.16134614 -0.4505443 1.1456007 2.3509528e-38
0.1690073 -0.44946551 1.1428438 2.3509528e-38
0.18030198 -0.44851685 1.1385155 2.3509528e-38
0.19203186 -0.44814768 1.1337667 2.3509528e-38
0.20595752 -0.44609991 1.1287912 2.3509528e-38
0.22222032 -0.44131005 1.1239681 2.3509528e-38
0.23438357 -0.44028595 1.1193078 2.3509528e-38
0.24192391 -0.43933645 1.1165482 2.3509528e-38
0.26220232 -0.43818948 1.1085479 2.3509528e-38
0.27768531 -0.43762153 1.1023129 2.3509528e-38
0.28247622 -0.43696648 1.1005809 2.3509528e-38
0.29952368 -0.43256527 1.0952699 2.3509528e-38
0.30510005 -0.43168646 1.0933018 2.3509528e-38
0.32309556 -0.42974311 1.086583 2.3509528e-38
0.32913917 -0.42951006 1.084154 2.3509528e-38
0.3417863 -0.42851076 1.0792814 2.3509528e-38
0.3555913 -0.42337826 1.075626 2.3509528e-38
0.37013429 -0.42454603 1.0690694 2.3509528e-38
0.3768065 -0.42294714 1.0669397 2.3509528e-38
0.39499524 -0.42101389 1.0601363 2.3509528e-38
0.39984667 -0.42030048 1.058403 2.3509528e-38
0.42366874 -0.4156329 1.0503712 2.3509528e-38
0.43990815 -0.41399503 1.0442604 2.3509528e-38
0.44487187 -0.41400087 1.0421842 2.3509528e-38
0.46053526 -0.40932122 1.0375661 2.3509528e-38
0.47341701 -0.40862113 1.0324721 2.3509528e-38
0.48078096 -0.40827441 1.0295383 2.3509528e-38
-0.098748878 -0.29690313 0.79531783 1.0508857e-38
-0.070555165 -0.31024522 0.85082948 8.9422614e-39
-0.041843597 -0.32265934 0.9079054 9.3103153e-39
-0.0089413272 -0.36038923 0.9623971 9.586542e-39
-0.010688104 -0.30886626 0.98250079 1.0785087e-38
0.021314114 -0.36734402 1.0253874 1.0047885e-38
0.014378326 -0.30659109 1.0384203 1.1892161e-38
0.052341804 -0.36188984 1.0958304 1.1339346e-38
0.043600392 -0.30438229 1.1034044 1.2168387e-38
0.085888758 -0.32359833 1.187037 1.1891437e-38
-0.093039609 -0.24818096 0.83043993 1.1707409e-38
-0.057531305 -0.25198233 0.90639162 1.1430826e-38
-0.09922111 -0.18614507 0.84571934 1.3181457e-38
-0.071885914 -0.18852744 0.90444154 1.2075832e-38
-0.10007247 -0.12118509 0.87402296 1.290414e-38
-0.099158444 -0.061437696 0.90376967 1.3642432e-38
-0.033464462 -0.24858475 0.96064448 1.1891806e-38
-0.0054870765 -0.24820493 1.0220549 1.2352422e-38
-0.04272069 -0.1873318 0.9688307 1.2167665e-38
-0.0092211524 -0.1876726 1.0419928 1.2443529e-38
-0.067399964 -0.12665546 0.94299281 1.2811944e-38
-0.070162207 -0.06278082 0.96660995 1.3734989e-38
-0.035539266 -0.12494442 1.013521 1.3089259e-38
-0.042142056 -0.051677562 1.0330937 1.4010857e-38
0.0014010252 -0.13898706 1.0878508 1.3458044e-38
-0.01259328 -0.063427001 1.0923109 1.4287802e-38
0.022458006 -0.23529318 1.0892143 1.2444251e-38
0.05196115 -0.24539056 1.1490988 1.2443888e-38
0.042109888 -0.19031997 1.1531117 1.2996701e-38
0.024901498 -0.12897591 1.1439353 1.4103776e-38
0.015898174 -0.059800103 1.1563544 1.4564026e-38
-0.10326681 -0.0094196964 0.91893435 1.4010852e-38
-0.076585487 -0.0087628514 0.97763681 1.3918658e-38
-0.10017724 0.053882644 0.95509356 1.3549146e-38
-0.06629584 0.039216269 1.0224388 1.3733536e-38
-0.023051795 -0.0041736662 1.0969372 1.4194516e-38
-0.042015087 0.07271383 1.0911381 1.3733539e-38
-0.0088321222 0.042711716 1.1498328 1.4103042e-38
-0.10387193 0.11324571 0.9745748 1.3549149e-38
-0.076992169 0.11508749 1.0342618 1.3364759e-38
-0.099751286 0.17861825 1.0139521 1.2719749e-38
-0.064655595 0.16483046 1.084363 1.2903055e-38
-0.02143543 0.1155611 1.1560787 1.3642067e-38
-0.038874347 0.18859701 1.1518273 1.2811221e-38
0.082506992 -0.24477252 1.2162414 1.2627556e-38
0.066906124 -0.18692324 1.2089604 1.3365485e-38
0.086645156 -0.17556916 1.257436 1.4103053e-38
0.053561732 -0.12754048 1.2073305 1.4195975e-38
0.045502767 -0.067814827 1.217428 1.4471831e-38
0.084768534 -0.12583318 1.2764256 1.4563671e-38
0.076594345 -0.067630842 1.2855635 1.4655494e-38
-0.0076324651 0.1646602 1.2090904 1.3181449e-38
0.025285888 0.00086356222 1.205073 1.4471826e-38
0.055152088 -0.0054694638 1.2675002 1.4564383e-38
0.016366666 0.065331958 1.21549 1.456475e-38
0.046943851 0.056501053 1.2783133 1.4657309e-38
0.082574606 -0.01446273 1.3233434 1.4656576e-38
0.07734327 0.061458908 1.3471508 1.4749497e-38
0.027332513 0.12053542 1.2651269 1.4103412e-38
0.018913532 0.18604198 1.2771212 1.3365845e-38
0.056163184 0.12030344 1.3281209 1.4103768e-38
0.047536623 0.18714185 1.3402792 1.3550958e-38
0.081657931 0.11858244 1.3831221 1.3920818e-38
0.075903341 0.18112075 1.3995693 1.3643161e-38
-0.10361122 0.32984579 1.0757327 1.0969114e-38
-0.11207472 0.41189569 1.0953119 9.7712934e-39
-0.10493096 0.25150245 1.0364622 1.189035e-38
-0.072976194 0.23613946 1.0992672 1.216585e-38
-0.062641144 0.28506944 1.14461 1.1797429e-38
-0.081637971 0.36858767 1.1418169 1.0692164e-38
-0.08872316 0.42918769 1.1544516 9.8631289e-39
-0.016063867 0.23360662 1.2226548 1.2535713e-38
-0.03704368 0.29811701 1.2066944 1.1798147e-38
-0.0068812668 0.28777051 1.2679058 1.2259855e-38
-0.046444729 0.36162063 1.2156088 1.1060589e-38
-0.015540755 0.35652238 1.2808807 1.1521567e-38
-0.046478134 0.42361745 1.2443266 1.0507774e-38
-0.0050384542 0.40905544 1.3282629 1.1060949e-38
0.030032486 0.24288869 1.3278562 1.3274378e-38
0.056963336 0.2415669 1.3861859 1.3275459e-38
0.020058874 0.30999857 1.3371923 1.2260581e-38
0.048917469 0.29886585 1.3951852 1.2629368e-38
0.037537623 0.36163557 1.3994278 1.1892156e-38
0.021820018 0.42929655 1.3964479 1.1154231e-38
0.082663514 0.25141442 1.447009 1.3366577e-38
0.075871661 0.30638364 1.4576709 1.2352424e-38
0.072582729 0.35698596 1.4739718 1.1707411e-38
0.051695164 0.42541853 1.4600347 1.1431188e-38
0.074133538 0.43950453 1.5156871 1.1707417e-38
-0.047273859 0.47764224 1.2676735 9.8627646e-39
-0.012514766 0.48210758 1.3458245 1.0231909e-38
0.0090388069 0.50578272 1.4039934 1.0232276e-38
0.035910659 0.48237681 1.451938 1.0693978e-38
0.023307798 0.54127997 1.4517083 9.7720193e-39
0.056460924 0.52677196 1.5175332 1.0233004e-38
0.074787259 0.54995084 1.568408 8.9429789e-39
0.063764177 0.60198301 1.5684451 9.4961583e-39
-0.11720622 0.41673735 1.086329 2.3509528e-38
-0.11770973 0.39828759 1.076659 2.3509528e-38
-0.11911562 0.36787301 1.0594578 2.3509528e-38
-0.11939716 0.32781094 1.0402369 2.3509528e-38
-0.11830835 0.2984736 1.0289961 2.3509528e-38
-0.11708882 0.26839393 1.0176965 2.3509528e-38
-0.1170086 0.22812591 0.99917203 2.3509528e-38
-0.1143972 0.20857517 0.99580836 2.3509528e-38
-0.11559074 0.17785785 0.97893113 2.3509528e-38
-0.11255381 0.13940579 0.96772122 2.3509528e-38
-0.11415891 0.098803483 0.94535279 2.3509528e-38
-0.11167262 0.059647091 0.93261063 2.3509528e-38
-0.11068927 0.039091568 0.92521715 2.3509528e-38
-0.11159206 0.0070064589 0.90834105 2.3509528e-38
-0.11085025 -0.019310549 0.89774328 2.3509528e-38
-0.10948833 -0.051446952 0.88580024 2.3509528e-38
-0.10883498 -0.068716712 0.87921023 2.3509528e-38
-0.10798828 -0.10019983 0.86644292 2.3509528e-38
-0.10767 -0.11783624 0.85894936 2.3509528e-38
-0.10788178 -0.13857038 0.8488571 2.3509528e-38
-0.10699732 -0.17860647 0.83220047 2.3509528e-38
-0.10678752 -0.20836981 0.81883788 2.3509528e-38
-0.10564631 -0.23754473 0.80778706 2.3509528e-38
-0.10500713 -0.27794957 0.79042232 2.3509528e-38
-0.1029822 -0.29689616 0.78605562 2.3509528e-38
-0.10146163 -0.30949122 0.78353465 2.3509528e-38
-0.090451129 -0.31553254 0.80482775 2.3509528e-38
-0.079258844 -0.3255828 0.82465714 2.3509528e-38
-0.064132474 -0.33650517 0.85269189 2.3509528e-38
-0.051774792 -0.34482658 0.8758747 2.3509528e-38
-0.036386695 -0.35458127 0.90502465 2.3509528e-38
-0.026892222 -0.36168018 0.92250854 2.3509528e-38
-0.016347162 -0.37093315 0.94129151 2.3509528e-38
-0.0051729642 -0.37982941 0.96161705 2.3509528e-38
0.0033145994 -0.38271776 0.97885239 2.3509528e-38
0.019863253 -0.3980372 1.0079583 2.3509528e-38
0.025517441 -0.40071854 1.0190884 2.3509528e-38
0.034232691 -0.38989159 1.0431913 2.3509528e-38
0.045234874 -0.37935024 1.0721672 2.3509528e-38
0.065787852 -0.3587752 1.1267062 2.3509528e-38
0.072155625 -0.35243931 1.1435857 2.3509528e-38
0.084472977 -0.35633048 1.1687376 2.3509528e-38
0.10174493 -0.34739667 1.2106897 2.3509528e-38
0.098915488 -0.3185457 1.217895 2.3509528e-38
0.097301707 -0.2871711 1.228933 2.3509528e-38
0.094840564 -0.24786992 1.2417974 2.3509528e-38
0.095731437 -0.22883748 1.2525858 2.3509528e-38
0.091445588 -0.1898673 1.2613027 2.3509528e-38
0.094078034 -0.16298321 1.279549 2.3509528e-38
0.09536162 -0.12734261 1.2989097 2.3509528e-38
0.089477547 -0.08944691 1.3036298 2.3509528e-38
0.087966263 -0.031386327 1.3272848 2.3509528e-38
0.088204607 -0.010020763 1.3377284 2.3509528e-38
0.088410512 0.0091375848 1.3470762 2.3509528e-38
0.089911908 0.029305659 1.3597281 2.3509528e-38
0.087635264 0.079534613 1.3780711 2.3509528e-38
0.087491751 0.099168628 1.3868749 2.3509528e-38
0.084718667 0.13478935 1.3973473 2.3509528e-38
0.082500629 0.16652463 1.4072304 2.3509528e-38
0.085672915 0.19735645 1.4284916 2.3509528e-38
0.08711677 0.22183903 1.4430212 2.3509528e-38
0.084533498 0.25226513 1.4514968 2.3509528e-38
0.0809578 0.28584021 1.4592627 2.3509528e-38
0.08035592 0.31787944 1.4728242 2.3509528e-38
0.083091378 0.34669152 1.4921913 2.3509528e-38
0.079675183 0.36357263 1.4925537 2.3509528e-38
0.08143723 0.39667869 1.5117846 2.3509528e-38
0.084398188 0.43478003 1.5359591 2.3509528e-38
0.078402661 0.48431712 1.5458413 2.3509528e-38
0.079526179 0.50652117 1.5586118 2.3509528e-38
0.079666518 0.53530675 1.5722867 2.3509528e-38
0.078019992 0.55476004 1.5777169 2.3509528e-38
0.070884138 0.58333361 1.5753682 2.3509528e-38
0.07008031 0.60536164 1.5838382 2.3509528e-38
0.066801384 0.6278441 1.5871023 2.3509528e-38
0.062571265 0.62461114 1.5763426 2.3509528e-38
0.056633852 0.61028373 1.5566939 2.3509528e-38
0.051966537 0.57034165 1.5279297 2.3509528e-38
0.032470457 0.56774729 1.4840539 2.3509528e-38
0.020831706 0.56940156 1.4593482 2.3509528e-38
0.015769241 0.56185508 1.4447638 2.3509528e-38
0.0076121455 0.54260433 1.4179704 2.3509528e-38
0.0025490141 0.52939671 1.4007552 2.3509528e-38
-0.005077607 0.51238209 1.3761612 2.3509528e-38
-0.021146195 0.50635588 1.3381935 2.3509528e-38
-0.036810756 0.50846541 1.3048882 2.3509528e-38
-0.047647178 0.49656498 1.2756439 2.3509528e-38
-0.055563197 0.48714921 1.2539457 2.3509528e-38
-0.065002009 0.47647229 1.2283288 2.3509528e-38
-0.071569152 0.4673577 1.2097224 2.3509528e-38
-0.079641871 0.45713347 1.1873056 2.3509528e-38
-0.089190066 0.44645697 1.1614496 2.3509528e-38
-0.094475359 0.44358873 1.1485496 2.3509528e-38
-0.10325977 0.42689562 1.1215709 2.3509528e-38
-0.11162195 0.42355371 1.1017168 2.3509528e-38
-0.49965185 -0.39057061 1.0330486 3.9647484e-39
-0.51169199 -0.34969455 1.053498 6.6391489e-39
-0.46912685 -0.37396866 1.0264791 5.8961525e-39
-0.48496231 -0.31506631 1.0553105 5.8039568e-39
-0.528934 -0.31436205 1.0740448 8.7607442e-39
-0.5196358 -0.27700013 1.0842083 7.2845169e-39
-0.46726894 -0.27196342 1.0641096 8.7509576e-39
-0.5268029 -0.23568213 1.1027774 8.3901442e-39
-0.51814681 -0.2047455 1.1107908 5.7132172e-39
-0.47518343 -0.23761153 1.0803694 7.6446142e-39
-0.48757523 -0.20374104 1.0983284 9.4896142e-39
-0.77916026 0.28276771 1.4039996 5.6235481e-39
-0.78840584 0.32538894 1.4239323 6.9128309e-39
-0.51843089 -0.079084724 1.1582288 5.6221131e-39
-0.52749676 -0.043537393 1.1754222 7.4674705e-39
-0.48125017 -0.056868978 1.1509775 6.7215887e-39
-0.51520389 -0.0093715182 1.1831244 6.5426219e-39
-0.51873076 0.035231944 1.2014016 6.8199333e-39
-0.46976596 -0.010222821 1.1637189 7.8264887e-39
-0.4699159 0.035112884 1.1808535 8.3796541e-39
-0.48452944 0.067567259 1.1992124 6.9981714e-39
-0.48662469 0.099428065 1.2120899 7.275117e-39
-0.71669734 0.069807425 1.2975719 8.4783504e-39
-0.52251118 0.092677392 1.2246209 6.9135722e-39
-0.7295233 0.26501721 1.3764668 4.7919713e-39
-0.69765687 0.28252974 1.3696766 4.9756451e-39
-0.73752332 0.30211765 1.3937975 5.8983147e-39
-0.70981014 0.33248624 1.393593 6.2652937e-39
-0.51473057 0.24449556 1.2785213 4.6097647e-39
-0.47124803 0.25597453 1.2645801 3.5927219e-39
-0.48161668 0.29249492 1.2826872 3.776746e-39
-0.47093478 0.33597884 1.294575 4.9731158e-39
-0.52623451 0.28669971 1.2992456 4.5157642e-39
-0.524198 0.3402299 1.3185476 3.7778306e-39
-0.52769226 0.37554207 1.3333123 5.991969e-39
-0.47767359 0.36978644 1.3101358 5.986902e-39
-0.43538859 -0.39182511 1.0055841 8.8442378e-39
-0.43124354 -0.35832104 1.0164593 9.0279046e-39
-0.3853685 -0.36789054 0.99358737 1.0872907e-38
-0.32797655 -0.35811639 0.97316188 1.1146959e-38
-0.42061001 -0.31609893 1.0278921 9.5796364e-39
-0.42058176 -0.27648082 1.0427988 1.4564363e-38
-0.38452375 -0.30124474 1.0183285 1.3362922e-38
-0.40563717 -0.24126504 1.0497826 1.1790883e-38
-0.35553819 -0.31690192 1.0002581 1.207037e-38
-0.31905314 -0.28333557 0.9975732 1.2527002e-38
-0.34631556 -0.24217424 1.0245237 1.2709947e-38
-0.3773424 -0.19672866 1.0546688 1.3634795e-38
-0.31264085 -0.20438881 1.0246079 1.4647131e-38
-0.43757048 -0.20114408 1.0783032 1.262101e-38
-0.27643508 -0.35972762 0.95090663 9.0304423e-39
-0.23897262 -0.35768515 0.93594068 9.6805187e-39
-0.1926875 -0.34898436 0.91977614 1.4108406e-38
-0.27899012 -0.31874153 0.96741343 1.0134615e-38
-0.23310146 -0.31551453 0.94935429 1.0507754e-38
-0.25337133 -0.28034315 0.97111219 8.2039523e-39
-0.24937493 -0.24342237 0.98333633 8.8475182e-39
-0.27217081 -0.19699834 1.0103925 1.1149137e-38
-0.23360142 -0.20813768 0.98999792 8.2986843e-39
-0.19135849 -0.3225624 0.92916739 1.2353804e-38
-0.19393621 -0.2800391 0.94626248 1.123699e-38
-0.19112915 -0.24241434 0.95925134 1.2341897e-38
-0.18954571 -0.19718416 0.97561806 1.3816653e-38
-0.42957291 -0.06875658 1.1247956 8.4707581e-39
-0.38443327 -0.056595903 1.110415 1.0223198e-38
-0.3503195 -0.045073256 1.1004255 1.2991975e-38
-0.30766916 -0.062290356 1.0760281 1.0221742e-38
-0.42850345 -0.020807473 1.1424021 9.2083134e-39
-0.43111598 0.035476014 1.1646932 1.0036988e-38
-0.38535404 0.01702589 1.1385247 9.575305e-39
-0.43406835 0.089660466 1.186337 1.0406133e-38
-0.38562909 0.067896172 1.1577958 1.27132e-38
-0.38287881 0.1050151 1.1706181 1.1972373e-38
-0.3527939 -0.010058842 1.1146498 1.1881268e-38
-0.30732813 -0.032061994 1.0872676 1.09575e-38
-0.31798661 0.027023636 1.1139936 1.1878736e-38
-0.35073549 0.079349801 1.1474527 1.4189052e-38
-0.31548777 0.093148604 1.1378437 1.2893613e-38
-0.23020716 -0.16631494 1.0043209 1.8065969e-38
-0.24237347 -0.039922923 1.057025 1.0036999e-38
-0.19908944 -0.16744804 0.9908241 1.7139312e-38
-0.19532374 -0.044207707 1.0356495 1.0774557e-38
-0.19192396 -0.0095296446 1.0472798 1.2247881e-38
-0.19459234 0.030477524 1.0634657 1.2708862e-38
-0.27577212 -0.0015025692 1.0855206 1.1510315e-38
-0.24482386 0.022366975 1.0815099 1.1972026e-38
-0.27018088 0.066607788 1.1088197 1.2524474e-38
-0.26862594 0.11020249 1.1245825 1.3079447e-38
-0.23088133 0.065306626 1.0918231 1.5666728e-38
-0.22952855 0.11062609 1.1083202 1.6403928e-38
-0.18896787 0.079548538 1.0795813 1.3078361e-38
-0.32435417 0.26471314 1.2061719 7.3716567e-39
-0.2728999 0.26901656 1.1861805 7.5549619e-39
-0.19452283 0.11696995 1.0960058 1.4184708e-38
-0.29953355 0.31107306 1.2132038 6.814869e-39
-0.42593166 0.2521489 1.2441057 5.8968853e-39
-0.37406194 0.25981998 1.2252078 7.0954299e-39
-0.42969146 0.29192942 1.2606646 5.0645953e-39
-0.38944513 0.29648337 1.2454751 5.2497027e-39
-0.40211695 0.33702976 1.2660655 8.0148471e-39
-0.43139288 0.37444994 1.2924529 8.5665733e-39
-0.39632949 0.37186086 1.2767506 9.2112183e-39
-0.34633219 0.29725328 1.2276565 5.3411808e-39
-0.34895682 0.33730707 1.2438415 9.4917918e-39
-0.34693781 0.37441713 1.2569675 9.7643948e-39
-0.29867637 0.36055872 1.2314782 8.9353558e-39
-0.20165996 0.13014646 1.1039654 2.3509528e-38
-0.24131486 0.13096027 1.1209278 2.3509528e-38
-0.26170897 0.13219334 1.1299582 2.3509528e-38
-0.28855097 0.11780786 1.1358154 2.3509528e-38
-0.31056896 0.12023392 1.1459771 2.3509528e-38
-0.33761969 0.11862671 1.1567338 2.3509528e-38
-0.35967183 0.11926272 1.1662357 2.3509528e-38
-0.3792524 0.11883765 1.1742998 2.3509528e-38
-0.41932973 0.10855395 1.1872609 2.3509528e-38
-0.43426228 0.10561056 1.1924245 2.3509528e-38
-0.45396888 0.10375517 1.2000031 2.3509528e-38
-0.48709014 0.10647179 1.2149378 2.3509528e-38
-0.52039289 0.10962222 1.230112 2.3509528e-38
-0.53301924 0.09773837 1.2309403 2.3509528e-38
-0.52945495 0.058680423 1.2147357 2.3509528e-38
-0.53399235 0.046771403 1.2121571 2.3509528e-38
-0.53079325 0.018590957 1.2002017 2.3509528e-38
-0.53411639 -0.0030150451 1.1934618 2.3509528e-38
-0.53181195 -0.03488934 1.1804913 2.3509528e-38
-0.53289771 -0.050518136 1.1750621 2.3509528e-38
-0.53081059 -0.083656199 1.161707 2.3509528e-38
-0.52024651 -0.099130638 1.1514429 2.3509528e-38
-0.48575449 -0.084486134 1.1424701 2.3509528e-38
-0.46629861 -0.08387541 1.134528 2.3509528e-38
-0.44285181 -0.085844085 1.1239386 2.3509528e-38
-0.4250097 -0.084457703 1.1169665 2.3509528e-38
-0.40080687 -0.079001181 1.1088555 2.3509528e-38
-0.37728512 -0.072996058 1.1012371 2.3509528e-38
-0.35583815 -0.073446326 1.0920593 2.3509528e-38
-0.3263624 -0.074004844 1.0794685 2.3509528e-38
-0.30386752 -0.066426463 1.0728737 2.3509528e-38
-0.27545589 -0.064729087 1.0615795 2.3509528e-38
-0.24747296 -0.052971825 1.0542532 2.3509528e-38
-0.22458334 -0.056444339 1.0433314 2.3509528e-38
-0.18356133 -0.060960002 1.0244008 2.3509528e-38
-0.17698838 -0.05527601 1.0237803 2.3509528e-38
-0.17900193 -0.033510108 1.0328223 2.3509528e-38
-0.18024126 -0.013363271 1.0409293 2.3509528e-38
-0.17619357 0.0017071508 1.044904 2.3509528e-38
-0.17377074 0.019728189 1.0506723 2.3509528e-38
-0.17982852 0.043042127 1.0619959 2.3509528e-38
-0.18050617 0.057683345 1.0677937 2.3509528e-38
-0.17422746 0.083884075 1.0750226 2.3509528e-38
-0.17188765 0.11108021 1.0842807 2.3509528e-38
-0.18044266 0.12999073 1.094995 2.3509528e-38
-0.23940606 -0.1638498 1.009113 2.3509528e-38
-0.21114498 -0.154662 1.0007024 2.3509528e-38
-0.1896906 -0.16001102 0.98967677 2.3509528e-38
-0.17717148 -0.16809236 0.9813754 2.3509528e-38
-0.17497669 -0.18658699 0.97348922 2.3509528e-38
-0.17510824 -0.21754123 0.96188843 2.3509528e-38
-0.17563945 -0.25721928 0.94717044 2.3509528e-38
-0.17554289 -0.27755174 0.93947351 2.3509528e-38
-0.17584734 -0.30935428 0.92762589 2.3509528e-38
-0.17588818 -0.32713035 0.92094934 2.3509528e-38
-0.17825934 -0.34359962 0.91574365 2.3509528e-38
-0.17955874 -0.35842869 0.91070533 2.3509528e-38
-0.19547415 -0.36153579 0.91622025 2.3509528e-38
-0.21427506 -0.36251515 0.92374831 2.3509528e-38
-0.23721407 -0.36830395 0.93120331 2.3509528e-38
-0.26651967 -0.36976424 0.94296247 2.3509528e-38
-0.28171161 -0.37317687 0.94805843 2.3509528e-38
-0.29535341 -0.37363112 0.95361722 2.3509528e-38
-0.31098044 -0.37697488 0.95892185 2.3509528e-38
-0.3264561 -0.38085788 0.96395981 2.3509528e-38
-0.3440367 -0.38213897 0.97086161 2.3509528e-38
-0.36398411 -0.38445988 0.97836608 2.3509528e-38
-0.39552185 -0.39106035 0.98912722 2.3509528e-38
-0.41588125 -0.39292434 0.99697673 2.3509528e-38
-0.43329719 -0.39435413 1.0037534 2.3509528e-38
-0.45397282 -0.39956579 1.0104752 2.3509528e-38
-0.47490481 -0.40253451 1.0181491 2.3509528e-38
-0.48762402 -0.40304953 1.0232977 2.3509528e-38
-0.50089478 -0.40606552 1.0277358 2.3509528e-38
-0.51419252 -0.40727112 1.0328673 2.3509528e-38
-0.51734006 -0.40047058 1.0367502 2.3509528e-38
-0.5138967 -0.38127777 1.0425311 2.3509528e-38
-0.52791905 -0.35777235 1.0572718 2.3509528e-38
-0.53319985 -0.32090631 1.0733722 2.3509528e-38
-0.53481132 -0.29161683 1.0850782 2.3509528e-38
-0.53280228 -0.24155506 1.1030856 2.3509528e-38
-0.53417498 -0.22059186 1.1115561 2.3509528e-38
-0.53370321 -0.20512673 1.1171813 2.3509528e-38
-0.51519012 -0.19783275 1.1121521 2.3509528e-38
-0.48315102 -0.19093812 1.1012912 2.3509528e-38
-0.45663849 -0.19375969 1.0890927 2.3509528e-38
-0.42752424 -0.17716518 1.0831128 2.3509528e-38
-0.3990998 -0.1842635 1.068501 2.3509528e-38
-0.37411276 -0.17423241 1.0617832 2.3509528e-38
-0.358107 -0.17762889 1.0537815 2.3509528e-38
-0.3405717 -0.17384118 1.0478425 2.3509528e-38
-0.32170713 -0.17816257 1.0382918 2.3509528e-38
-0.3001211 -0.1701275 1.0322508 2.3509528e-38
-0.28385383 -0.16872986 1.0259444 2.3509528e-38
-0.79615825 0.30308539 1.4187899 2.3509528e-38
-0.79141623 0.27143526 1.4048802 2.3509528e-38
-0.77137977 0.26257271 1.393127 2.3509528e-38
-0.75087893 0.25752705 1.3826162 2.3509528e-38
-0.71786535 0.25554132 1.3680019 2.3509528e-38
-0.68689895 0.26228535 1.3575349 2.3509528e-38
-0.68248415 0.27708 1.3612517 2.3509528e-38
-0.69435722 0.30110043 1.3752837 2.3509528e-38
-0.6919592 0.33968893 1.3888073 2.3509528e-38
-0.71139228 0.3403497 1.3972185 2.3509528e-38
-0.73491949 0.33306676 1.404358 2.3509528e-38
-0.75220525 0.32914165 1.4101404 2.3509528e-38
-0.78434098 0.34054157 1.427931 2.3509528e-38
-0.79710555 0.34835246 1.4362335 2.3509528e-38
-0.8117339 0.33431968 1.4370935 2.3509528e-38
-0.79672629 0.31041107 1.421787 2.3509528e-38
-0.29011223 0.38943043 1.2387528 2.3509528e-38
-0.31484798 0.39293513 1.2504622 2.3509528e-38
-0.35022548 0.38954514 1.2640451 2.3509528e-38
-0.3858605 0.37966233 1.2752911 2.3509528e-38
-0.4055528 0.38312107 1.2848647 2.3509528e-38
-0.43243265 0.38180432 1.2956592 2.3509528e-38
-0.4617165 0.38100055 1.3076563 2.3509528e-38
-0.5050776 0.38190198 1.3262084 2.3509528e-38
-0.52490842 0.38327956 1.3350565 2.3509528e-38
-0.54481602 0.3772454 1.341146 2.3509528e-38
-0.54122823 0.35237724 1.3302747 2.3509528e-38
-0.53729415 0.32870623 1.3197087 2.3509528e-38
-0.54010278 0.31003222 1.3138566 2.3509528e-38
-0.53921181 0.29168418 1.3065733 2.3509528e-38
-0.53606176 0.2670055 1.2959573 2.3509528e-38
-0.53505087 0.23336805 1.2828662 2.3509528e-38
-0.51869094 0.23108645 1.2751354 2.3509528e-38
-0.49759111 0.23098963 1.2662365 2.3509528e-38
-0.46258399 0.23607947 1.2534494 2.3509528e-38
-0.4415479 0.23980601 1.2460171 2.3509528e-38
-0.41248477 0.24530438 1.2358803 2.3509528e-38
-0.38703537 0.24873872 1.2264842 2.3509528e-38
-0.36713573 0.25001463 1.2186064 2.3509528e-38
-0.34584209 0.25033095 1.2097816 2.3509528e-38
-0.31313086 0.25177786 1.196587 2.3509528e-38
-0.29320499 0.26007539 1.1913421 2.3509528e-38
-0.26927587 0.26045927 1.1814359 2.3509528e-38
-0.2622155 0.26495853 1.1801647 2.3509528e-38
-0.27561834 0.31995884 1.2065051 2.3509528e-38
-0.27775618 0.34672317 1.2174811 2.3509528e-38
-0.72763789 0.062279422 1.2993324 2.3509528e-38
-0.72648841 0.095556259 1.3113803 2.3509528e-38
-0.70707291 0.090381965 1.3012768 2.3509528e-38
-0.70517957 0.059709221 1.2889315 2.3509528e-38
-0.71586102 0.043450549 1.2872957 2.3509528e-38
-0.72379482 0.05766093 1.295979 2.3509528e-38
-0.61972398 0.081343256 1.1355343 1.1615524e-38
-0.6253171 0.13392545 1.1585671 9.6812446e-39
-0.64030105 0.15370934 1.1721284 9.2199091e-39
-0.51005536 -0.34993282 0.92237401 1.1712078e-38
-0.47794196 -0.35238934 0.90919161 1.2081939e-38
-0.52863979 -0.24893562 0.96959466 1.1988667e-38
-0.53743607 -0.22032066 0.98431522 1.1896109e-38
-0.55396318 -0.19031203 1.0025285 1.152661e-38
-0.4782587 -0.33013785 0.91815919 1.0975226e-38
-0.51185447 -0.32269627 0.93388724 1.189647e-38
-0.52452362 -0.29173216 0.95101398 1.2080865e-38
-0.49997935 -0.29898596 0.93880099 1.2172693e-38
-0.50343472 -0.27092203 0.95127267 1.2357079e-38
-0.4804399 -0.29958826 0.93113506 1.2541477e-38
-0.4773615 -0.26588404 0.94336593 1.2264894e-38
-0.4935008 -0.23767745 0.96071523 1.2632954e-38
-0.52929264 -0.19987302 0.98935026 1.226453e-38
-0.5257082 -0.18012027 0.99584162 1.2540754e-38
-0.49967602 -0.21003605 0.97405255 1.2632228e-38
-0.49488345 -0.18288162 0.98302788 1.2908096e-38
-0.47991568 -0.20422722 0.96885175 1.2724789e-38
-0.14169523 -0.30531752 0.8001067 1.4747656e-38
-0.14351842 -0.2863622 0.80833632 1.1977796e-38
-0.14809842 -0.26178077 0.8198508 1.1237716e-38
-0.11746241 -0.30149737 0.79241514 1.9451819e-38
-0.12214571 -0.2691662 0.80705017 1.9358536e-38
-0.13952596 -0.23273596 0.82814091 1.4835517e-38
-0.11947729 -0.22773205 0.82251036 1.9726598e-38
-0.14048055 -0.19966814 0.84165162 1.5017742e-38
-0.14809221 -0.17719105 0.85348171 1.3816647e-38
-0.11466781 -0.19042085 0.83551753 1.9909906e-38
-0.55750781 -0.15936597 1.01618 1.0972708e-38
-0.52486801 -0.15557282 1.0052824 1.2816622e-38
-0.49534675 -0.15836105 0.99295342 1.2907376e-38
-0.50825703 -0.13114575 1.0086813 1.2723344e-38
-0.48102435 -0.1295511 0.99896461 1.263151e-38
-0.44537365 -0.14655261 0.97865474 1.115493e-38
-0.47767219 -0.10902227 1.0058529 1.0787959e-38
-0.46904135 -0.092223965 1.0092516 1.0696136e-38
-0.41272542 -0.14456247 0.9670369 1.3734237e-38
-0.38952696 -0.13639745 0.96146613 8.2957892e-39
-0.57704234 -0.12068091 1.0389862 4.8859928e-39
-0.5834319 -0.083862931 1.0560538 5.0682135e-39
-0.5659036 -0.08943785 1.0471748 1.1063818e-38
-0.55098593 -0.12451993 1.0275562 1.180211e-38
-0.54353476 -0.096658722 1.0358019 1.18943e-38
-0.58529204 -0.059642948 1.0663908 6.7266488e-39
-0.57431346 -0.03925265 1.0703253 7.1883374e-39
-0.57408684 -0.01030577 1.0817484 8.8485804e-39
-0.5529263 -0.06806206 1.0507417 1.1616631e-38
-0.5469451 -0.045690436 1.0573633 1.1709188e-38
-0.55420327 -0.023268409 1.0690371 1.1524436e-38
-0.55051184 0.0006081285 1.0771275 1.1524434e-38
-0.51872379 -0.10292986 1.0238783 1.263151e-38
-0.49663472 -0.088891402 1.0210645 1.2722619e-38
-0.52152199 -0.072345942 1.0371021 1.272371e-38
-0.52246606 -0.045165468 1.0482681 1.2631505e-38
-0.50204349 -0.067925043 1.0314564 1.253823e-38
-0.50029743 -0.048133388 1.0386621 1.2446037e-38
-0.50712544 -0.026406048 1.0498961 1.2261286e-38
-0.52178782 -0.0020781525 1.0651419 1.2262365e-38
-0.49942613 0.00088005082 1.0578189 1.2261277e-38
-0.47790933 -0.070109792 1.0214149 1.2077979e-38
-0.47742245 -0.051012475 1.028823 1.1985784e-38
-0.47937122 -0.026205732 1.039427 1.216945e-38
-0.47992355 -0.0036551666 1.0486031 1.2537869e-38
-0.58436203 0.00789731 1.0928915 8.0166477e-39
-0.5646686 0.02305489 1.0914332 1.0785783e-38
-0.55369949 0.051820893 1.0987014 1.1247487e-38
-0.58507001 0.038674675 1.1053978 7.5560241e-39
-0.58551586 0.075415336 1.1201756 1.0230429e-38
-0.55247581 0.086272143 1.1119343 1.1063456e-38
-0.57996756 0.10377321 1.129342 1.1431145e-38
-0.58930004 0.13077389 1.1436247 1.014259e-38
-0.6058476 0.15493865 1.1595222 8.2064845e-39
-0.61617166 0.17129454 1.1699492 4.0555105e-39
-0.57867849 0.16798945 1.1543849 7.7440532e-39
-0.55324662 0.11789721 1.1248016 7.2838107e-39
-0.55713218 0.1416696 1.1357304 9.0347948e-39
-0.55232972 0.16826981 1.1444815 9.9567497e-39
-0.52750695 0.020876637 1.0764425 1.1892859e-38
-0.52224076 0.041189179 1.0825174 1.1985055e-38
-0.49979776 0.025848934 1.0678879 1.1985055e-38
-0.52063024 0.060776968 1.0896933 1.1984337e-38
-0.51404518 0.085551456 1.0970409 1.1799942e-38
-0.4993929 0.056438655 1.0798967 1.1892498e-38
-0.47973105 0.020147962 1.0579941 1.235312e-38
-0.48054859 0.040298838 1.066317 1.2260919e-38
-0.48042077 0.061971936 1.0748858 1.244531e-38
-0.48509836 0.08316981 1.0850921 1.1892498e-38
-0.48177639 0.1082311 1.0937937 1.1984689e-38
-0.52316624 0.10950238 1.1100308 1.1339679e-38
-0.52086574 0.1294243 1.1170775 1.0509573e-38
-0.52609658 0.14928627 1.1269629 8.8511294e-39
-0.52479315 0.17617086 1.137157 8.5738222e-39
-0.50029957 0.14992756 1.1174128 1.0048943e-38
-0.49616545 0.17273195 1.1249088 1.1154566e-38
-0.48754686 0.12842709 1.1040173 1.0601396e-38
-0.45868555 0.13731293 1.0965805 1.2536781e-38
-0.46778187 0.15618426 1.1075413 1.1983607e-38
-0.43604106 0.14526682 1.0911363 1.3458014e-38
-0.41056454 0.14748454 1.082335 1.3642046e-38
-0.42052129 0.17268628 1.0961397 1.1614103e-38
-0.39320654 0.14881484 1.0762665 1.3641687e-38
-0.39029858 0.17534295 1.085709 1.2535702e-38
-0.36386579 0.14787327 1.0647402 1.4470359e-38
-0.36984137 0.17496352 1.0777826 1.2904125e-38
-0.32415521 0.15043086 1.0506639 1.6036603e-38
-0.34629607 0.1759285 1.0692172 1.3272546e-38
-0.32734853 0.17079982 1.0599765 1.3640967e-38
-0.29905343 0.1708777 1.049253 1.4101582e-38
-0.27188855 0.16434638 1.0363312 1.5207924e-38
-0.58089411 0.18908884 1.1636161 5.8064988e-39
-0.5702011 0.21699464 1.1706474 7.1847487e-39
-0.53873074 0.19687004 1.1506844 7.2834421e-39
-0.53429478 0.21630198 1.1567246 9.0355136e-39
-0.5615738 0.24636653 1.1790466 7.3738161e-39
-0.54946858 0.27410576 1.1854749 9.1273491e-39
-0.50884455 0.19462442 1.1384323 9.3113705e-39
-0.48765507 0.21694024 1.1392516 9.6797998e-39
-0.52426499 0.23848507 1.1617326 9.1266303e-39
-0.51990306 0.26338074 1.1699733 9.4039304e-39
-0.49059999 0.25351769 1.1549143 1.0416647e-38
-0.47726113 0.18404968 1.1222236 1.1983253e-38
-0.45724314 0.18746902 1.1159747 1.0048588e-38
-0.53079283 0.2920554 1.1855135 9.9560294e-39
-0.49722704 0.28009158 1.1679988 1.0232256e-38
-0.49998558 0.30692625 1.1797169 9.8641911e-39
-0.47736332 0.29247522 1.1653728 1.0232619e-38
-0.48138088 0.32541686 1.1799977 9.8645582e-39
-0.59057778 0.2504718 1.1917027 5.3437046e-39
-0.57603192 0.29068911 1.2021646 7.7418741e-39
-0.57232171 0.32114455 1.2128638 9.67979e-39
-0.57708162 0.34407574 1.2237905 1.004929e-38
-0.55102915 0.34296015 1.2134448 9.1269918e-39
-0.52910918 0.31609249 1.1944308 9.6805187e-39
-0.51442349 0.34513548 1.2003968 9.4032158e-39
-0.47944832 0.35166875 1.1897008 9.9563951e-39
-0.58140171 0.40320656 1.2489432 4.8863474e-39
-0.53695309 0.37636316 1.2213761 9.034792e-39
-0.56814015 0.37148422 1.2312897 9.4961233e-39
-0.55914587 0.40642518 1.2417638 8.2972227e-39
-0.5738703 0.43218797 1.2576036 7.1915982e-39
-0.54376864 0.43235129 1.2462276 8.4819839e-39
-0.57749569 0.45509747 1.2680906 6.4547451e-39
-0.55490619 0.46332359 1.2627754 7.9295234e-39
-0.54831052 0.49097389 1.2712625 8.0213631e-39
-0.57980055 0.50029272 1.2869365 7.5618227e-39
-0.55624402 0.50767583 1.2809186 7.9288102e-39
-0.49232316 0.37049916 1.2020816 9.4954142e-39
-0.50804275 0.39140114 1.216367 8.9422418e-39
-0.52990049 0.40828311 1.2313869 8.942239e-39
-0.49793413 0.41141269 1.2204816 8.8507651e-39
-0.52092314 0.43203491 1.2374187 8.7585666e-39
-0.50225019 0.43385267 1.2310443 8.7582065e-39
-0.47995386 0.3927381 1.2062224 9.5876098e-39
-0.48368582 0.43118536 1.2229277 8.8507594e-39
-0.52741235 0.45834264 1.2503451 8.4819811e-39
-0.51988196 0.47947496 1.2558854 8.3897869e-39
-0.50124282 0.4554123 1.2392335 8.6660137e-39
-0.49790621 0.48136672 1.2482851 8.4812651e-39
-0.51318622 0.49972585 1.2613922 8.2975871e-39
-0.4801037 0.45517755 1.2311057 8.7582107e-39
-0.47720528 0.4770228 1.2386898 8.2057544e-39
-0.47539136 0.4958657 1.2454923 8.4827042e-39
-0.38531798 0.19589631 1.091988 5.3433584e-39
-0.35884741 0.19866461 1.0830277 8.4780056e-39
-0.33707845 0.1996413 1.0751421 9.3999619e-39
-0.32547566 0.19303589 1.0681057 1.2719369e-38
-0.30697152 0.19674486 1.0625474 1.152118e-38
-0.2770825 0.197363 1.0514328 1.2349862e-38
-0.23534007 -0.13110928 0.90496522 1.7881587e-38
-0.21703856 -0.13126199 0.89794844 1.7236581e-38
-0.19702293 -0.12534814 0.89269227 1.751208e-38
-0.14810029 -0.15882584 0.86078691 1.3171302e-38
-0.1400938 -0.12259195 0.87215048 1.4931694e-38
-0.14833948 -0.090107642 0.88820046 2.6693306e-39
-0.1302295 -0.16333134 0.85220313 1.8802463e-38
-0.1116 -0.15544319 0.84825873 2.0093935e-38
-0.1138884 -0.13057216 0.85901737 2.0094291e-38
-0.12150385 -0.11168378 0.86942196 2.0001734e-38
-0.11305805 -0.085352853 0.87668121 1.9540394e-38
-0.14284356 -0.067804605 0.8949793 9.3055943e-39
-0.14113469 -0.046502776 0.90279961 1.3725549e-38
-0.13987093 -0.027663251 0.90980989 1.4647858e-38
-0.14476524 -0.0045156726 0.92087376 1.2985801e-38
-0.11691096 -0.054481287 0.89042026 1.9632944e-38
-0.10017475 -0.041792497 0.88910431 1.9725497e-38
-0.12854856 -0.0062611136 0.91401607 1.7879419e-38
-0.11505985 -0.023885261 0.90188181 1.9264163e-38
-0.10611513 -0.0057798494 0.90568089 1.9263801e-38
-0.1153452 0.021226548 0.919927 1.8802827e-38
-0.14168778 0.01744581 0.92843604 1.381665e-38
-0.14076582 0.041682892 0.93772238 1.4186516e-38
-0.14025496 0.069321744 0.9485175 1.4186873e-38
-0.13081521 0.087886482 0.95231116 1.6402476e-38
-0.11414272 0.050761521 0.93121314 1.8341848e-38
-0.10673127 0.078300439 0.93934584 1.788087e-38
-0.14196955 0.11099973 0.96574056 1.4369443e-38
-0.14145575 0.13156946 0.97372401 1.8985754e-38
-0.18178409 0.17707866 1.0071467 1.6129163e-38
-0.14713447 0.17059845 0.99140036 1.6866352e-38
-0.11400828 0.11710425 0.95754021 1.7143309e-38
-0.12161114 0.15998274 0.97747874 1.6590498e-38
-0.098505095 0.15440127 0.96647727 1.649866e-38
-0.24233107 0.16870573 1.0268303 1.5944767e-38
-0.21121983 0.17027342 1.0156288 1.6036964e-38
-0.15460508 0.20068605 1.0062028 1.4470004e-38
-0.11500645 0.19899857 0.99048126 1.5484518e-38
-0.1332303 0.23102401 1.0101413 9.1230191e-39
-0.10000321 0.2094823 0.98894709 1.5392682e-38
-0.098802887 0.23339891 0.99800026 1.5023181e-38
-0.11098161 0.25539216 1.0113739 1.428598e-38
-0.24875426 0.20485921 1.0436463 1.0874733e-38
-0.21534336 0.19439588 1.0267872 1.4562919e-38
-0.21102256 0.21278775 1.0324577 6.9992728e-39
-0.18388198 0.20862333 1.0204864 1.1610858e-38
-0.14207402 0.25859234 1.0244639 4.2380927e-39
-0.14096515 0.28748837 1.0355315 6.8188444e-39
-0.14159495 0.31668019 1.0473778 7.6500442e-39
-0.13969576 0.3369838 1.0547286 1.0785066e-38
-0.11252933 0.28184175 1.0224786 1.364169e-38
-0.11044324 0.30673161 1.031582 1.327291e-38
-0.11866535 0.33021209 1.0440431 1.2720099e-38
-0.1342579 0.35454166 1.059643 1.2536774e-38
-0.10800218 0.36353815 1.0532407 1.2075807e-38
-0.13110773 0.38490275 1.0705174 1.2721172e-38
-0.10413703 0.39426455 1.0639887 1.1615195e-38
-0.12540534 0.41278252 1.0794352 1.2076173e-38
-0.099216975 0.33390769 1.0381205 1.2903769e-38
-0.51767689 -0.36150768 0.92066848 2.3509528e-38
-0.52394062 -0.3528412 0.92649519 2.3509528e-38
-0.53186357 -0.31164551 0.94588608 2.3509528e-38
-0.53231728 -0.29421037 0.95299083 2.3509528e-38
-0.5352872 -0.27425238 0.96205503 2.3509528e-38
-0.54253387 -0.24624616 0.97594482 2.3509528e-38
-0.55141693 -0.22459862 0.98792827 2.3509528e-38
-0.55431026 -0.20558812 0.99658662 2.3509528e-38
-0.57179576 -0.17229824 1.0164686 2.3509528e-38
-0.57420301 -0.14049475 1.0300288 2.3509528e-38
-0.58116019 -0.12499894 1.0388343 2.3509528e-38
-0.59144187 -0.09057726 1.0564284 2.3509528e-38
-0.59286863 -0.058481336 1.0697322 2.3509528e-38
-0.58053797 -0.037636235 1.0733337 2.3509528e-38
-0.58198124 -0.014793217 1.0829647 2.3509528e-38
-0.59954751 0.030447332 1.1076292 2.3509528e-38
-0.60221547 0.07367602 1.1258311 2.3509528e-38
-0.63561213 0.12648247 1.1595206 2.3509528e-38
-0.65255356 0.14690529 1.17408 2.3509528e-38
-0.64515996 0.16422312 1.1781554 2.3509528e-38
-0.62467778 0.17212725 1.1735133 2.3509528e-38
-0.59026349 0.23064941 1.1837018 2.3509528e-38
-0.59832501 0.24703091 1.1932793 2.3509528e-38
-0.60320717 0.26040915 1.200454 2.3509528e-38
-0.58269137 0.30426389 1.2100933 2.3509528e-38
-0.57910174 0.32409045 1.216612 2.3509528e-38
-0.58249646 0.34392667 1.2257893 2.3509528e-38
-0.57654196 0.38832465 1.2411789 2.3509528e-38
-0.59220254 0.40685594 1.2544994 2.3509528e-38
-0.58787835 0.42879987 1.2615809 2.3509528e-38
-0.58598387 0.45876423 1.2727747 2.3509528e-38
-0.59002352 0.50143498 1.2912761 2.3509528e-38
-0.58965528 0.51668847 1.297201 2.3509528e-38
-0.56940436 0.5150919 1.2888693 2.3509528e-38
-0.55583352 0.51197702 1.2824727 2.3509528e-38
-0.52432257 0.5036608 1.2671895 2.3509528e-38
-0.5053727 0.50205547 1.2593488 2.3509528e-38
-0.47068229 0.50383127 1.2468698 2.3509528e-38
-0.47026458 0.47551256 1.2354513 2.3509528e-38
-0.46858105 0.46403795 1.230249 2.3509528e-38
-0.47524607 0.44516912 1.2252799 2.3509528e-38
-0.47655562 0.40740663 1.2107631 2.3509528e-38
-0.47017306 0.37158322 1.1940936 2.3509528e-38
-0.47033644 0.34327579 1.1829005 2.3509528e-38
-0.47095495 0.33186126 1.1785972 2.3509528e-38
-0.4709937 0.30720711 1.1688094 2.3509528e-38
-0.47068721 0.29247597 1.1628357 2.3509528e-38
-0.47008649 0.27952179 1.1574568 2.3509528e-38
-0.47169983 0.24921545 1.1460199 2.3509528e-38
-0.47037175 0.23768955 1.1409326 2.3509528e-38
-0.47055918 0.22160234 1.1346073 2.3509528e-38
-0.46814671 0.20911153 1.128724 2.3509528e-38
-0.43338889 0.19203867 1.108725 2.3509528e-38
-0.4122934 0.19186066 1.1006361 2.3509528e-38
-0.3874937 0.19822595 1.0937412 2.3509528e-38
-0.36095506 0.20321405 1.0856377 2.3509528e-38
-0.34315351 0.20097896 1.0779829 2.3509528e-38
-0.33166248 0.20081396 1.0735497 2.3509528e-38
-0.28490886 0.21007386 1.0594614 2.3509528e-38
-0.26718843 0.20715205 1.0515645 2.3509528e-38
-0.23814313 0.21622078 1.0441307 2.3509528e-38
-0.20938066 0.21568023 1.0329838 2.3509528e-38
-0.19005734 0.2150227 1.0253779 2.3509528e-38
-0.17904441 0.21821043 1.0224595 2.3509528e-38
-0.14765342 0.24954581 1.0229875 2.3509528e-38
-0.14606428 0.2669636 1.0293089 2.3509528e-38
-0.15056531 0.29185393 1.0409162 2.3509528e-38
-0.14875637 0.32669902 1.0540832 2.3509528e-38
-0.14858794 0.35114241 1.063738 2.3509528e-38
-0.14397331 0.38346413 1.0748354 2.3509528e-38
-0.13601924 0.40760788 1.0814117 2.3509528e-38
-0.13766593 0.417593 1.0860078 2.3509528e-38
-0.12641765 0.4167639 1.0814029 2.3509528e-38
-0.110909 0.41574714 1.0751041 2.3509528e-38
-0.097420335 0.39772162 1.0628103 2.3509528e-38
-0.098347336 0.3685196 1.0515518 2.3509528e-38
-0.09522064 0.33343285 1.0364127 2.3509528e-38
-0.098492488 0.30877426 1.0278519 2.3509528e-38
-0.098469071 0.28764343 1.0194412 2.3509528e-38
-0.096538603 0.25675854 1.0064275 2.3509528e-38
-0.096380115 0.22766525 0.99479967 2.3509528e-38
-0.099194393 0.18864813 0.98035592 2.3509528e-38
-0.095110379 0.1558699 0.96577096 2.3509528e-38
-0.09834756 0.11770238 0.95182568 2.3509528e-38
-0.098897956 0.088982075 0.94061559 2.3509528e-38
-0.099078901 0.059423026 0.92893153 2.3509528e-38
-0.098216802 0.038220111 0.92017353 2.3509528e-38
-0.098966628 0.0095830029 0.90907222 2.3509528e-38
-0.099168926 -0.011000995 0.90096486 2.3509528e-38
-0.0949402 -0.037053339 0.88899904 2.3509528e-38
-0.10102165 -0.070865162 0.87786674 2.3509528e-38
-0.10273675 -0.097499512 0.86792862 2.3509528e-38
-0.10418332 -0.12551822 0.85733813 2.3509528e-38
-0.10832721 -0.14222533 0.85227031 2.3509528e-38
-0.10827223 -0.16219905 0.84430778 2.3509528e-38
-0.10622807 -0.17657207 0.837816 2.3509528e-38
-0.1055355 -0.198365 0.82888788 2.3509528e-38
-0.107834 -0.22250421 0.82016361 2.3509528e-38
-0.10734159 -0.24272025 0.81193846 2.3509528e-38
-0.10224304 -0.277549 0.79615253 2.3509528e-38
-0.10754085 -0.30942518 0.78549194 2.3509528e-38
-0.13489668 -0.31281585 0.79454124 2.3509528e-38
-0.15062927 -0.30642712 0.80306113 2.3509528e-38
-0.15671746 -0.2690137 0.82025087 2.3509528e-38
-0.14579302 -0.23986349 0.82768899 2.3509528e-38
-0.14437625 -0.22227009 0.83414572 2.3509528e-38
-0.14512905 -0.20223217 0.84239906 2.3509528e-38
-0.15329136 -0.17871712 0.85485107 2.3509528e-38
-0.18752694 -0.13188128 0.88648546 2.3509528e-38
-0.1930498 -0.13311131 0.8880955 2.3509528e-38
-0.2195899 -0.14482714 0.89352465 2.3509528e-38
-0.24194309 -0.13601489 0.90552443 2.3509528e-38
-0.24933115 -0.12140326 0.91414225 2.3509528e-38
-0.23076645 -0.11980134 0.90772307 2.3509528e-38
-0.20562162 -0.11262643 0.90101874 2.3509528e-38
-0.15353525 -0.087469138 0.89122438 2.3509528e-38
-0.14641421 -0.047055263 0.90458649 2.3509528e-38
-0.14535458 -0.032124694 0.91012019 2.3509528e-38
-0.14742343 0.01066494 0.92791998 2.3509528e-38
-0.147563 0.031375408 0.93620759 2.3509528e-38
-0.14658362 0.060351182 0.94735616 2.3509528e-38
-0.14368734 0.080806136 0.95438838 2.3509528e-38
-0.14601009 0.10243163 0.96386957 2.3509528e-38
-0.14827907 0.12446378 0.97349209 2.3509528e-38
-0.14521387 0.13651541 0.97711891 2.3509528e-38
-0.17410961 0.16563736 0.99968058 2.3509528e-38
-0.19129513 0.16260938 1.0050086 2.3509528e-38
-0.2069838 0.16022769 1.0100245 2.3509528e-38
-0.23623142 0.15777738 1.0201668 2.3509528e-38
-0.25219941 0.15490115 1.0250922 2.3509528e-38
-0.2642836 0.15350837 1.0291314 2.3509528e-38
-0.28181845 0.1529717 1.0355827 2.3509528e-38
-0.31049874 0.14840548 1.0446681 2.3509528e-38
-0.3429665 0.14446577 1.0554419 2.3509528e-38
-0.38989809 0.14041147 1.0716678 2.3509528e-38
-0.3989481 0.13810143 1.0741889 2.3509528e-38
-0.41568646 0.13866122 1.0807735 2.3509528e-38
-0.43189025 0.13744248 1.0864477 2.3509528e-38
-0.47084898 0.097425319 1.0853441 2.3509528e-38
-0.47197154 0.08613243 1.0812807 2.3509528e-38
-0.47653663 0.069015488 1.07621 2.3509528e-38
-0.47814763 0.059830058 1.0731701 2.3509528e-38
-0.46935564 0.034659807 1.0598207 2.3509528e-38
-0.47123304 0.016320279 1.0532423 2.3509528e-38
-0.47523642 -0.0083427783 1.0449578 2.3509528e-38
-0.47240907 -0.027178688 1.0363939 2.3509528e-38
-0.47046876 -0.051205896 1.0261031 2.3509528e-38
-0.47069797 -0.062218521 1.0218116 2.3509528e-38
-0.46926376 -0.075609915 1.015942 2.3509528e-38
-0.46022758 -0.10067148 1.002543 2.3509528e-38
-0.44259021 -0.13808186 0.98096478 2.3509528e-38
-0.40759632 -0.12873779 0.97137946 2.3509528e-38
-0.38474107 -0.13410804 0.9605574 2.3509528e-38
-0.40615797 -0.15103772 0.96196616 2.3509528e-38
-0.41542479 -0.15185404 0.96516377 2.3509528e-38
-0.43273962 -0.1541608 0.97082764 2.3509528e-38
-0.47585088 -0.19051254 0.97275978 2.3509528e-38
-0.47274449 -0.20710497 0.96498185 2.3509528e-38
-0.47788984 -0.23195678 0.95705634 2.3509528e-38
-0.47139427 -0.27580419 0.93715352 2.3509528e-38
-0.47010544 -0.28670561 0.93232918 2.3509528e-38
-0.47425491 -0.31552827 0.92244637 2.3509528e-38
-0.47194999 -0.33009827 0.91577715 2.3509528e-38
-0.47081938 -0.35040438 0.90727371 2.3509528e-38
-0.47534561 -0.35558003 0.90693611 2.3509528e-38
-0.48920748 -0.35996887 0.91045976 2.3509528e-38
-0.50462818 -0.36127657 0.91580087 2.3509528e-38
-0.60891742 -0.16163085 1.3380086 1.4762035e-39
-0.56387341 -0.13909547 1.2550381 1.0141463e-39
-0.54276711 -0.12728222 1.2116793 1.567676e-39
-0.53788686 -0.13842265 1.2512305 8.290348e-40
-0.51502836 -0.12804639 1.2129129 1.0134233e-39
-0.51108801 -0.13727316 1.2456758 4.5953761e-40
-0.58321357 -0.14894091 1.2912686 7.3756364e-40
-0.55789346 -0.14736246 1.2842606 6.4464494e-40
-0.58476895 -0.15682501 1.3195295 5.5316677e-40
-0.58012056 -0.16444889 1.3465255 4.6061381e-40
-0.55691624 -0.15627776 1.3160701 2.7658549e-40
-0.56021845 -0.16450047 1.3456355 9.2552961e-41
-0.53596175 -0.15190904 1.2993256 3.6734479e-40
-0.51024312 -0.14758623 1.2824878 5.5101298e-40
-0.5092501 -0.15690488 1.3157381 1.8367099e-40
-0.53125829 -0.1641195 1.3427104 1.8367099e-40
-0.53162205 -0.11932554 1.1826414 2.3052481e-39
-0.50613594 -0.11901098 1.1801412 1.2889325e-39
-0.62727171 -0.17436486 1.3845096 4.6205995e-40
-0.60874557 -0.17254978 1.3770225 2.7730435e-40
-0.63287234 -0.18181612 1.4114418 5.5388984e-40
-0.60385156 -0.18256131 1.4125384 2.7658409e-40
-0.58000308 -0.17414801 1.3811828 1.8438986e-40
-0.56329679 -0.18257304 1.4103911 1.8367099e-40
-0.5394944 -0.17515942 1.3826104 1.8367099e-40
-0.51114285 -0.17565741 1.3828598 2.7550649e-40
-0.44395411 -0.11305617 1.1555026 1.2864144e-39
-0.41425556 -0.11242178 1.1516322 1.4700854e-39
-0.39130864 -0.11304659 1.1526264 1.5619209e-39
-0.37551039 -0.1055196 1.1248727 1.4704441e-39
-0.36625543 -0.11427618 1.1556683 1.6537564e-39
-0.33340928 -0.10358986 1.1157033 2.1136513e-39
-0.34183848 -0.11094601 1.1424484 1.5619209e-39
-0.31955796 -0.11299379 1.1485641 1.9306978e-39
-0.4890911 -0.1291986 1.2156307 7.350427e-40
-0.48153734 -0.13878617 1.2494876 2.7550649e-40
-0.45941395 -0.13309883 1.2279676 3.6734198e-40
-0.42337394 -0.12426243 1.1944416 9.1835496e-40
-0.4417676 -0.14128274 1.2562633 5.5101298e-40
-0.41677856 -0.13156003 1.2201663 6.4284847e-40
-0.41501144 -0.14006904 1.2504811 4.5917748e-40
-0.48494789 -0.14763133 1.2812835 9.1835496e-41
-0.46246478 -0.15021712 1.2893111 3.6734198e-40
-0.48719159 -0.15737584 1.3162305 2.7550649e-40
-0.49258071 -0.1658875 1.3469414 1.8367099e-40
-0.45614186 -0.15808742 1.3170974 3.6734198e-40
-0.45873898 -0.16458285 1.3404516 5.5101298e-40
-0.44081625 -0.15362917 1.3003367 6.4284847e-40
-0.41507018 -0.15088324 1.2891331 6.4320721e-40
-0.41671652 -0.15786451 1.3141723 8.268782e-40
-0.42388692 -0.16450439 1.3382897 8.2723693e-40
-0.48042303 -0.11572079 1.1669945 1.380045e-39
-0.45824614 -0.12290088 1.191458 9.1835496e-40
-0.3884483 -0.12364545 1.1903511 1.2860557e-39
-0.38874432 -0.13183364 1.2196307 1.102026e-39
-0.38986179 -0.14027838 1.2498716 6.4284847e-40
-0.37106839 -0.12980095 1.211412 8.268782e-40
-0.362432 -0.14107908 1.2512525 5.5137171e-40
-0.3463417 -0.12378895 1.1885909 1.1023847e-39
-0.31954297 -0.12445809 1.1895356 1.4708029e-39
-0.34178424 -0.13477755 1.2276169 1.0105492e-39
-0.31831279 -0.13299248 1.21997 1.4704441e-39
-0.31431112 -0.14057009 1.2468356 1.1952964e-39
-0.38960391 -0.15176468 1.2909085 4.5917748e-40
-0.36834869 -0.15137573 1.2883711 8.2723693e-40
-0.39451134 -0.16082886 1.3235679 5.5173044e-40
-0.36828619 -0.15997961 1.319117 1.1034609e-39
-0.38456136 -0.16543519 1.3394934 8.2831313e-40
-0.34168014 -0.1501438 1.2825286 1.1038196e-39
-0.32016191 -0.15021732 1.2816297 1.1960138e-39
-0.34604332 -0.16021805 1.3187684 1.1960138e-39
-0.32055625 -0.15899873 1.3130348 1.4725965e-39
-0.29671478 -0.10037097 1.1022184 2.7586522e-39
-0.26638523 -0.098473243 1.0937989 2.7600885e-39
-0.29633033 -0.1073416 1.12711 2.2069218e-39
-0.29836011 -0.11488386 1.1541747 2.0232508e-39
-0.26824293 -0.11246248 1.143895 2.1158037e-39
-0.24874359 -0.1028752 1.1085786 2.2998335e-39
-0.22249766 -0.095472559 1.0807055 3.1295815e-39
-0.24650931 -0.11142059 1.1389982 2.1158037e-39
-0.22038057 -0.10519391 1.1153343 2.2083609e-39
-0.22245215 -0.11512437 1.1509365 1.4711616e-39
-0.19691887 -0.092713825 1.0694652 3.8667794e-39
-0.20267746 -0.10234657 1.1042023 3.4054481e-39
-0.29477417 -0.12578821 1.1929522 1.4715203e-39
-0.2669189 -0.12573905 1.1912726 1.5637146e-39
-0.29574019 -0.13412201 1.2227883 1.1956551e-39
-0.26929316 -0.13487194 1.2240407 1.1963726e-39
-0.28062719 -0.14086957 1.2460877 1.4708029e-39
-0.23424363 -0.12402125 1.1833695 2.115445e-39
-0.24554408 -0.13350773 1.2178831 1.7477443e-39
-0.25058192 -0.14068723 1.243814 1.6562675e-39
-0.29738721 -0.15083162 1.2825956 1.2885668e-39
-0.26821253 -0.15160982 1.2838018 1.5640733e-39
-0.29205626 -0.15963316 1.3137636 1.7484618e-39
-0.25004643 -0.1475307 1.2682428 2.0239682e-39
-0.24868689 -0.1542331 1.2921231 1.6584199e-39
-0.48984167 -0.17516045 1.3799338 3.6734198e-40
-0.46211913 -0.17163903 1.365852 8.2651947e-40
