# .PCD v0.7 - Point Cloud Data file format
VERSION 0.7
FIELDS x y z rgb
SIZE 4 4 4 4
TYPE F F F F
COUNT 1 1 1 1
WIDTH 997
HEIGHT 1
VIEWPOINT 0 0 0 1 0 0 0
POINTS 997
DATA ascii
-0.090827867 -0.084035806 0.85243398 1.8528424e-38
-0.089561991 -0.14386323 0.83391416 1.5578542e-38
-0.090401113 -0.19464806 0.81263065 1.1983996e-38
-0.090918735 -0.24418432 0.79274505 1.1339707e-38
-0.091265619 -0.29474074 0.77297717 1.4844571e-38
-0.088144906 -0.3067674 0.77758616 1.4379257e-38
-0.073497996 -0.32131863 0.81476325 8.8515035e-39
-0.064530872 -0.3307035 0.83734727 9.3110482e-39
-0.053377196 -0.34131539 0.86583179 8.9418971e-39
-0.041971277 -0.35227093 0.89492226 8.7564114e-39
-0.022501124 -0.37224293 0.94410861 9.1262884e-39
-0.0024152633 -0.39226782 0.99506509 9.8649422e-39
0.0096995309 -0.40383139 1.0259905 1.0324843e-38
0.025988795 -0.38340414 1.0809208 1.0970913e-38
0.065345712 -0.38507873 1.194705 1.8424609e-39
0.071833283 -0.3542324 1.2250093 1.198399e-38
0.069910832 -0.29339331 1.2419959 1.2535723e-38
0.068808377 -0.22435071 1.2644101 1.3271485e-38
0.070684724 -0.16827285 1.2906728 1.44722e-38
0.071478553 -0.076481938 1.3270403 1.4931721e-38
0.071476176 -0.055889331 1.3346745 1.5023555e-38
0.070832126 0.0051502287 1.3554517 1.5670017e-38
0.071493804 0.082962662 1.3862482 1.4750215e-38
-0.50789231 -0.090031549 1.1550895 4.7909105e-39
-0.51706994 -0.059476979 1.1712641 5.4366359e-39
-0.48767182 -0.024227833 1.1729475 6.2616938e-39
-0.52605319 -0.019455878 1.1911602 6.7299054e-39
-0.5186609 0.026098875 1.2063277 5.6224747e-39
-0.47982368 0.023612818 1.1888402 7.2743968e-39
-0.46335629 -0.07505367 1.1422002 7.2733164e-39
-0.43062851 -0.045421101 1.1402131 8.7480625e-39
-0.44514537 0.0025303063 1.1656452 9.024292e-39
-0.51259172 0.056617822 1.2160146 6.358232e-39
-0.48364037 0.064625926 1.2069414 6.8137844e-39
-0.51623607 0.09385027 1.2325234 5.6213859e-39
-0.47684246 0.096905723 1.2170265 8.0119534e-39
-0.42861086 0.039557587 1.1735046 1.0037354e-38
-0.43791866 0.079623699 1.1935567 9.85368e-39
-0.38906673 -0.074141383 1.1110268 9.1164863e-39
-0.33071303 -0.06950184 1.0881165 9.6692957e-39
-0.35198766 -0.038653482 1.1095451 1.2991969e-38
-0.30088791 -0.041000649 1.0869071 1.0865664e-38
-0.33116844 0.0027073603 1.1173267 1.0496889e-38
-0.38860893 -0.035154115 1.1264992 1.1976723e-38
-0.40015104 0.0062417663 1.148034 1.0312853e-38
-0.37046465 -0.00071961991 1.1326331 1.0128112e-38
-0.36630544 0.044737808 1.149134 1.1697968e-38
-0.3693276 0.08022479 1.1646774 1.3820631e-38
-0.36592489 0.11059059 1.1754348 1.2525187e-38
-0.41421378 0.096290402 1.1901898 1.0958588e-38
-0.30956048 0.038961604 1.1227216 1.2340075e-38
-0.31033036 0.083791897 1.1410632 1.3078366e-38
-0.30546772 0.11860571 1.1529882 1.3631171e-38
-0.24970856 -0.056059781 1.0591272 9.6685797e-39
-0.26591381 -0.015407921 1.082343 1.0312143e-38
-0.25112718 0.021958072 1.0910805 1.1694709e-38
-0.18992507 -0.052847914 1.0350366 1.0774557e-38
-0.20783491 -0.021521796 1.0552284 1.1786903e-38
-0.20077878 0.021934554 1.0696952 1.2340434e-38
-0.25115466 0.071108967 1.1108432 1.3726638e-38
-0.20344529 0.063815765 1.087657 1.3911025e-38
-0.20899391 0.1173537 1.1115265 1.4740054e-38
-0.18738905 0.094617918 1.0932178 1.409288e-38
-0.25976759 0.1199099 1.1341101 1.2986532e-38
-0.17826675 -0.013905233 1.0457356 1.2800695e-38
-0.17773059 0.019722054 1.059021 1.3077279e-38
-0.1767149 0.13073173 1.1031982 1.4367642e-38
-0.52992213 0.051082022 1.2211479 1.1615904e-38
-0.52217168 0.10214396 1.2383764 6.3618446e-39
-0.44642419 0.11351625 1.2107871 1.2806856e-38
-0.3760601 0.11599138 1.1819081 1.2709572e-38
-0.32369936 0.12503669 1.1633129 1.4369094e-38
-0.25657114 0.13647793 1.1394107 1.4925156e-38
-0.22893752 0.13875799 1.1285949 1.2526986e-38
-0.17598516 0.13418429 1.1042757 1.4551679e-38
-0.17518575 0.094301112 1.0879096 1.3815196e-38
-0.17808685 0.055526752 1.07356 1.2986888e-38
-0.17756703 0.034060281 1.0647132 1.3169111e-38
-0.17560336 -0.0042655747 1.0484785 1.3076916e-38
-0.17731172 -0.035055421 1.0368311 1.2523752e-38
-0.18103239 -0.056539863 1.0297774 1.1050777e-38
-0.24455714 -0.06485267 1.0534068 9.2086609e-39
-0.27387789 -0.066144869 1.0653359 1.0314298e-38
-0.31139639 -0.075703695 1.0774233 9.2090406e-39
-0.38463089 -0.08472871 1.1048889 8.2885249e-39
-0.41367999 -0.086241297 1.1166141 8.0105003e-39
-0.44120145 -0.087362885 1.1278478 7.8243195e-39
-0.49394801 -0.095589191 1.1469361 4.3284806e-39
-0.52321136 -0.095792226 1.1592784 5.6246397e-39
-0.52881455 -0.077758931 1.1689038 9.0355249e-39
-0.53152847 -0.043360665 1.1838787 9.2206154e-39
-0.53294796 0.0047957227 1.2038327 1.0142224e-38
-0.53014433 0.038499698 1.216186 9.9567553e-39
-0.5002315 -0.39526361 1.0291815 2.9506077e-39
-0.50935388 -0.3576498 1.0481694 6.1781694e-39
-0.51915574 -0.31801262 1.0682588 6.2700049e-39
-0.51710504 -0.26617235 1.0882198 5.6231907e-39
-0.5060122 -0.22420062 1.1003762 6.8184731e-39
-0.45977095 -0.39300168 1.0129128 7.2783596e-39
-0.38890606 -0.37550217 0.98985863 1.0041695e-38
-0.43448439 -0.37423941 1.0097166 8.9360691e-39
-0.47766152 -0.32392442 1.0482665 6.0798193e-39
-0.44927928 -0.34433177 1.0280161 7.8300887e-39
-0.44803163 -0.29540867 1.0471458 1.0780719e-38
-0.39245769 -0.32681069 1.0109329 1.1426085e-38
-0.42484528 -0.26307422 1.0502954 1.3086693e-38
-0.38248092 -0.27603111 1.0271027 1.419124e-38
-0.48462 -0.27610245 1.0704378 7.0928852e-39
-0.38798362 -0.22262523 1.0508995 1.2618474e-38
-0.4518857 -0.2338386 1.0735235 9.6703887e-39
-0.45826486 -0.20194599 1.0890478 1.1423549e-38
-0.42311987 -0.19541857 1.0767498 1.3451134e-38
-0.38359928 -0.18462849 1.0643069 1.4098311e-38
-0.3325451 -0.37317559 0.96686518 1.1055124e-38
-0.34161279 -0.32957238 0.98823655 1.1793055e-38
-0.33091643 -0.26899123 1.0080395 1.2618475e-38
-0.29806325 -0.34555742 0.96332371 1.1423899e-38
-0.27601147 -0.31545094 0.96605968 1.0595239e-38
-0.30362555 -0.2955907 0.98576415 1.1791239e-38
-0.27536803 -0.27111125 0.98360413 1.1240248e-38
-0.35349879 -0.24059616 1.0290374 1.2709954e-38
-0.32740116 -0.21755049 1.0272183 1.3539342e-38
-0.34331417 -0.1890233 1.0454376 1.3726991e-38
-0.29076129 -0.21975878 1.0107751 1.3263468e-38
-0.29753771 -0.18256874 1.0285966 1.6031149e-38
-0.22134428 -0.35477632 0.92704767 1.2264146e-38
-0.18433236 -0.35432768 0.9115144 1.3830732e-38
-0.19194172 -0.3192133 0.92885542 1.15226e-38
-0.18455742 -0.27657199 0.94285548 1.1513214e-38
-0.2223786 -0.30080312 0.94917572 1.2163301e-38
-0.21121109 -0.24570918 0.96657342 1.2252957e-38
-0.202564 -0.18629543 0.98677731 1.4648946e-38
-0.17866869 -0.20752917 0.96809977 1.3262397e-38
-0.18959668 -0.36031345 0.91134405 1.5680416e-38
-0.17654504 -0.32665032 0.91933012 1.7977398e-38
-0.17677128 -0.28552428 0.93595237 1.1789808e-38
-0.17532749 -0.27028769 0.94146216 1.2528802e-38
-0.17488921 -0.21789616 0.96232927 1.3169853e-38
-0.17450987 -0.18718606 0.97450882 1.2985805e-38
-0.17655572 -0.16876704 0.98277903 1.2619924e-38
-0.18458918 -0.16587164 0.98735315 1.4741132e-38
-0.19568953 -0.16267335 0.99335104 2.0183207e-38
-0.3007293 -0.17348206 1.033603 1.8708803e-38
-0.37862691 -0.17287862 1.0669174 1.8615189e-38
-0.46787891 -0.19246781 1.0969383 1.4284153e-38
-0.51433086 -0.19863664 1.1141808 7.4660103e-39
-0.53287667 -0.20587084 1.1191475 1.0789031e-38
-0.53347272 -0.22118427 1.1132469 1.1524431e-38
-0.53467458 -0.29172689 1.0854101 9.9621741e-39
-0.53329885 -0.32082039 1.073135 9.8681722e-39
-0.52831358 -0.35761461 1.0562329 1.3094662e-38
-0.51500231 -0.4067328 1.0308439 7.4187824e-40
-0.4757401 -0.40176383 1.0161716 5.9894187e-39
-0.4463605 -0.39747179 1.0054229 8.8449651e-39
-0.40575364 -0.39087531 0.9908337 9.3045013e-39
-0.37106875 -0.38513094 0.97841644 8.7549148e-39
-0.35651362 -0.38226679 0.9733879 1.068706e-38
-0.3361336 -0.38080719 0.96532202 1.0962935e-38
-0.31854877 -0.37898192 0.95858967 1.1056194e-38
-0.28258979 -0.37234688 0.94598925 1.1701215e-38
-0.22094665 -0.36254224 0.92375821 1.318608e-38
-0.19638288 -0.36067799 0.91407865 1.5403469e-38
-0.51548731 0.2377526 1.290032 4.8867173e-39
-0.46913421 0.24134225 1.2717949 3.4094124e-39
-0.51522404 0.2842811 1.3086172 4.3313715e-39
-0.47065151 0.28664654 1.2906442 3.7763845e-39
-0.47900051 0.34389126 1.3171924 4.7890874e-39
-0.5289185 0.34466666 1.3386968 5.1618496e-39
-0.43479666 0.24397914 1.2582762 5.8050498e-39
-0.41889232 0.27040929 1.2621447 4.8820075e-39
-0.35952359 0.25795498 1.2319348 7.187264e-39
-0.36026585 0.2944878 1.2469301 5.2493467e-39
-0.41799507 0.31508577 1.2797168 6.0776599e-39
-0.41832256 0.35486865 1.2958422 8.1977894e-39
-0.42935759 0.37713459 1.3094747 8.7513275e-39
-0.35939705 0.33756015 1.2638696 9.7680144e-39
-0.35984886 0.37377417 1.2786139 9.7643976e-39
-0.28360969 0.2597447 1.2004241 7.740442e-39
-0.27217835 0.27779189 1.202823 7.0010679e-39
-0.31561399 0.2601977 1.2141937 7.5564081e-39
-0.30068657 0.30603534 1.2262758 6.9070618e-39
-0.3100079 0.35789534 1.2510728 9.2119413e-39
-0.29357123 0.38775834 1.2560948 1.0132456e-38
-0.27121374 0.35027364 1.2315397 8.4740162e-39
-0.26502118 0.30816495 1.2119895 6.4457277e-39
-0.26302886 0.39118749 1.2445058 1.0040619e-38
-0.53647184 0.34111065 1.3404747 4.6101332e-39
-0.53592867 0.29747522 1.3227096 7.0061392e-39
-0.53146094 0.26288265 1.3069119 6.2700119e-39
-0.53071928 0.22945997 1.2931663 5.7197416e-39
-0.51440132 0.22722644 1.2853409 4.4253986e-39
-0.49333131 0.22712073 1.276353 4.333161e-39
-0.45833215 0.23217162 1.2635236 2.4874701e-39
-0.43729812 0.2359512 1.2561122 6.3600313e-39
-0.37386248 0.24594396 1.2331957 7.4663901e-39
-0.35356134 0.24688424 1.2249546 7.7436902e-39
-0.32489419 0.2475273 1.2130423 7.4663691e-39
-0.30531886 0.248487 1.2051171 7.1897934e-39
-0.26510766 0.25667286 1.1913345 7.5538885e-39
-0.25927475 0.28876507 1.2017542 7.272257e-39
-0.255992 0.36146614 1.2295748 8.8442322e-39
-0.26643825 0.3985396 1.2489076 1.0040987e-38
-0.34975106 0.38906029 1.2804694 9.4863786e-39
-0.39042965 0.38472173 1.2959964 1.0872554e-38
-0.44179162 0.38023075 1.3159977 8.3832709e-39
-0.46693283 0.37622383 1.3250616 8.6605626e-39
-0.53932548 0.37242344 1.354269 8.2990486e-39
-0.53741282 0.36162496 1.3491178 7.098695e-39
-0.77375954 0.3012456 1.4251972 6.1752673e-39
-0.75045007 0.26262376 1.3997811 4.7001414e-39
-0.71045452 0.30026975 1.3979286 5.8972315e-39
-0.70656306 0.26588562 1.3824594 4.9756339e-39
-0.77400231 0.33072144 1.437145 6.4525773e-39
-0.68784523 0.32260662 1.3973056 7.0035888e-39
-0.69660991 0.27635351 1.3824402 5.1596748e-39
-0.72656608 0.25672397 1.3872702 4.7912496e-39
-0.75380778 0.24598847 1.3945218 4.6075744e-39
-0.78371292 0.28685749 1.4236412 6.5480337e-39
-0.80321157 0.32191163 1.4460058 6.3581984e-39
-0.79089755 0.332488 1.4450278 6.9149875e-39
-0.7483567 0.33645272 1.4285601 6.9142813e-39
-0.71715105 0.33833301 1.416067 5.2522376e-39
-0.68655616 0.33489391 1.4016958 6.6326245e-39
-0.71214771 0.04756574 1.2971001 6.9095869e-39
-0.72118664 0.074210823 1.3116448 8.6638178e-39
-0.68604058 0.072460219 1.2960197 8.3854359e-39
-0.69894826 0.078055494 1.3037483 9.4975372e-39
-0.70841902 0.044326395 1.2942153 7.0010469e-39
-0.71593332 0.040837456 1.2960036 7.3694987e-39
-0.72440141 0.059482038 1.3070909 6.6344392e-39
-0.72932976 0.07679522 1.3161404 9.3999437e-39
-0.50337589 -0.34162256 0.92200118 1.1896468e-38
-0.51319104 -0.30376434 0.94141072 1.2173056e-38
-0.51964355 -0.26076639 0.96141398 1.2172696e-38
-0.49479994 -0.2433532 0.95757753 1.2632591e-38
-0.48397061 -0.30189538 0.92945409 1.263403e-38
-0.5270198 -0.22238432 0.97997266 1.2079779e-38
-0.50237483 -0.18690231 0.98344964 1.2816619e-38
-0.4787131 -0.16177535 0.98321223 1.2540402e-38
-0.55154371 -0.18060201 1.0073466 1.1710639e-38
-0.56922495 -0.12925865 1.0355698 7.2838009e-39
-0.57518864 -0.075890459 1.0595082 8.2043068e-39
-0.57119036 -0.020136423 1.08007 8.8489448e-39
-0.52442533 -0.13940924 1.0120323 1.2539313e-38
-0.52440774 -0.10211708 1.0269403 1.2354561e-38
-0.52342343 -0.062495079 1.0423601 1.2262006e-38
-0.49435723 -0.10917111 1.011054 1.2907376e-38
-0.49369884 -0.031429257 1.0418622 1.253751e-38
-0.53683871 -0.010583464 1.0689558 1.1892858e-38
-0.130963 -0.29484087 0.77879894 1.7053275e-38
-0.1223416 -0.26415101 0.78732568 1.9173423e-38
-0.12143677 -0.30209738 0.77175486 1.78834e-38
-0.13376309 -0.22119477 0.80947256 1.7603924e-38
-0.13611752 -0.17971227 0.82708806 1.7786866e-38
-0.13389388 -0.13250166 0.84500408 1.7973064e-38
-0.10574166 -0.22140521 0.79720557 2.0003185e-38
-0.10741353 -0.18575363 0.81219214 2.0094298e-38
-0.108909 -0.14387739 0.82959163 2.0186489e-38
-0.10984706 -0.09672372 0.84885943 2.0186482e-38
-0.11632527 -0.059068039 0.86673719 1.9817337e-38
-0.1435125 -0.081960157 0.86940122 1.161194e-38
-0.13746534 -0.036916662 0.88478816 1.6495036e-38
-0.13355118 -0.00083280326 0.89751887 1.704821e-38
-0.10596623 -0.0076570278 0.88279629 1.9448191e-38
-0.5627268 0.021517288 1.0930506 9.8634582e-39
-0.56188518 0.05983799 1.1080118 1.0416276e-38
-0.5922758 0.11284183 1.1424247 1.1063452e-38
-0.55337453 0.10667467 1.1230448 1.0048945e-38
-0.63263726 0.14233409 1.1717687 9.496496e-39
-0.64439136 0.16334546 1.1852829 6.2682042e-39
-0.58323652 0.16027837 1.157468 8.0213659e-39
-0.55748463 0.18975057 1.15806 8.1114007e-39
-0.59681672 0.18602988 1.173672 6.0852213e-39
-0.55024076 0.23792811 1.17418 9.1262631e-39
-0.51434565 0.051823124 1.0841373 1.1892498e-38
-0.49339271 0.016308978 1.0608231 1.2261279e-38
-0.48222011 0.04677216 1.0681499 1.1708107e-38
-0.47571421 0.11310109 1.091851 1.2168723e-38
-0.51410407 0.10937925 1.1070532 1.0786509e-38
-0.4392713 0.15687023 1.0935131 1.2720812e-38
-0.51809764 0.15862472 1.128486 9.4957729e-39
-0.51281917 0.22799301 1.1539366 8.7582065e-39
-0.49125862 0.18968895 1.1292421 1.096982e-38
-0.47713745 0.15617663 1.1096988 1.1799219e-38
-0.45479295 0.19145977 1.1140962 9.3106628e-39
-0.48615953 0.24038653 1.1473029 1.0877617e-38
-0.57261008 0.27593979 1.1991091 7.280896e-39
-0.53667331 0.28079271 1.1854259 9.5879658e-39
-0.56999445 0.31523949 1.2136908 9.4954016e-39
-0.54186434 0.33444244 1.2091411 9.5876056e-39
-0.49674067 0.28801993 1.1709551 1.0140418e-38
-0.4994387 0.35176763 1.1976254 9.4954114e-39
-0.52610481 0.39125013 1.2250108 8.8504035e-39
-0.47743869 0.37761641 1.1983992 9.9563951e-39
-0.47690734 0.43610269 1.221561 8.5741796e-39
-0.57458085 0.35040602 1.2297502 9.8648988e-39
-0.57279819 0.40539643 1.2509698 5.9926935e-39
-0.57004821 0.45757419 1.2706437 7.0997613e-39
-0.52407467 0.43761146 1.2426714 8.5741768e-39
-0.54009354 0.48162043 1.2672381 8.2053942e-39
-0.49662441 0.47918901 1.2473667 8.3897869e-39
-0.57467031 0.50093818 1.2899977 7.5618227e-39
-0.51471943 0.50249779 1.2645566 8.2057516e-39
-0.38172767 0.15783875 1.0688823 1.3549488e-38
-0.3957881 0.19201392 1.0886644 8.6627584e-39
-0.30199671 0.16217119 1.0359507 1.5391956e-38
-0.34371641 0.17585172 1.0595609 1.3825354e-38
-0.34650072 0.20326865 1.0717374 7.9248333e-39
-0.26235101 0.18067878 1.0261164 1.4654753e-38
-0.2359235 0.20869078 1.0258305 1.1058403e-38
-0.30075181 0.19963698 1.0503945 1.1428267e-38
-0.21456723 0.18012822 1.0051214 1.5483793e-38
-0.18161425 0.21836044 1.0060861 1.0136089e-38
-0.39985594 0.44895458 1.1932019 6.7291754e-39
-0.12692925 0.04156046 0.911596 1.7233325e-38
-0.13247469 0.078092039 0.92861843 1.6495759e-38
-0.13559447 0.12086674 0.94708347 1.6218805e-38
-0.10636677 0.078077249 0.9172616 1.8065261e-38
-0.10590103 0.11430588 0.93154955 1.7419896e-38
-0.15564278 0.17672911 0.97814316 1.6498297e-38
-0.11329784 0.15610942 0.95148563 1.6590498e-38
-0.11357459 0.19939499 0.96891898 1.5669268e-38
-0.13629667 0.22286457 0.98818493 1.400939e-38
-0.13526845 0.25747594 1.0015815 9.5847203e-39
-0.12961975 0.29654023 1.0147501 1.1705217e-38
-0.13559474 0.3399393 1.0347062 1.2167277e-38
-0.1074734 0.24982476 0.98643678 1.4654763e-38
-0.10576862 0.30040914 1.0059279 1.3549495e-38
-0.11007165 0.35288814 1.0287888 1.244423e-38
-0.13611993 0.37753516 1.0499718 1.2813365e-38
-0.13296723 0.41532984 1.0637178 1.2260559e-38
-0.10505049 0.40144944 1.0460289 1.1523001e-38
-0.59150541 0.50464612 1.2988 7.837332e-39
-0.56810033 0.51374215 1.2922624 8.0213561e-39
-0.51669484 0.50367415 1.2658859 8.2057586e-39
-0.48657122 0.49531859 1.2494472 8.2976011e-39
-0.39521304 0.45199481 1.1923991 6.5447967e-39
-0.39645678 0.44559348 1.1903796 8.2939773e-39
-0.46786773 0.35939127 1.1869484 1.1063108e-38
-0.47753352 0.27783492 1.1585307 1.1338249e-38
-0.38931656 0.20008227 1.0890779 4.4156372e-39
-0.36315325 0.20550661 1.0798725 6.635556e-39
-0.31300366 0.20931047 1.0595903 7.2823155e-39
-0.24214591 0.22053275 1.0332724 8.0166435e-39
-0.15422654 0.36171496 1.0515164 1.391862e-38
-0.1432296 0.42339897 1.0714071 1.4103741e-38
-0.11695676 0.42198706 1.0594198 1.1614487e-38
-0.10363988 0.40420136 1.0465162 1.1523003e-38
-0.10198446 0.36182085 1.0288455 1.2260198e-38
-0.10333954 0.30266181 1.0057728 1.3641331e-38
-0.10279313 0.2633608 0.98981601 1.447001e-38
-0.095439836 0.21290663 0.96643883 1.5485599e-38
-0.10145564 0.1625673 0.94892007 1.659049e-38
-0.10110412 0.11169483 0.92841965 1.7512089e-38
-0.10070745 0.040944524 0.89994913 1.8802826e-38
-0.10330462 -0.017124344 0.8778525 1.9540743e-38
-0.10314316 -0.066030987 0.85822093 2.009464e-38
-0.10115287 -0.10991437 0.83980358 2.0646371e-38
-0.10442418 -0.15514243 0.82313591 2.0278686e-38
-0.1017454 -0.18611018 0.80958509 2.0186491e-38
-0.10304682 -0.23686799 0.78984928 2.0003901e-38
-0.10442714 -0.27533802 0.7750625 1.9911714e-38
-0.10537112 -0.30116919 0.76514113 1.9728758e-38
-0.14096333 -0.30644166 0.77850682 1.9359265e-38
-0.15297472 -0.30379361 0.78478807 9.8565568e-39
-0.15236875 -0.28438479 0.79228759 9.9473189e-39
-0.15064536 -0.26817545 0.79802155 1.077601e-38
-0.15166263 -0.23372252 0.81224406 1.2065302e-38
-0.15115769 -0.20545812 0.82332945 1.2802526e-38
-0.15480134 -0.1435131 0.84968972 1.1515736e-38
-0.15378202 -0.085537143 0.87243533 2.1161625e-39
-0.15261789 -0.034603205 0.89230138 1.2154622e-38
-0.15325415 0.016584499 0.91305149 1.3169473e-38
-0.1520773 0.056501321 0.92850542 1.326203e-38
-0.24736285 0.16047822 1.0115204 1.8526594e-38
-0.27651 0.15731137 1.022926 1.7788308e-38
-0.31357992 0.15155973 1.0367424 1.7604642e-38
-0.34556866 0.14708672 1.048861 1.6958199e-38
-0.47003353 0.027638586 1.0551987 1.0786516e-38
-0.47122431 -0.091373242 1.0081152 9.5912294e-39
-0.47026649 -0.17495608 0.97426802 1.217307e-38
-0.48445523 -0.23597986 0.95602906 1.3000297e-38
-0.48438376 -0.27386093 0.94084662 1.2725142e-38
-0.47681206 -0.30766308 0.92403483 1.2725507e-38
-0.47625247 -0.35478202 0.90494543 1.2542909e-38
-0.4964729 -0.35985363 0.91170806 1.1896463e-38
-0.51807463 -0.36141661 0.92047471 1.1527694e-38
-0.53034508 -0.33901471 0.93476957 1.1250037e-38
-0.53228289 -0.3017967 0.95049822 1.2079078e-38
-0.54200542 -0.24659644 0.97680384 1.1618809e-38
-0.55076939 -0.22511385 0.98920649 1.14337e-38
-0.5709458 -0.17320153 1.0187421 1.1434053e-38
-0.59023196 -0.091861606 1.0596607 4.7001246e-39
-0.59178174 -0.059829656 1.0731462 5.9876545e-39
-0.58210933 -0.0032292262 1.0915796 7.1879563e-39
-0.64282799 0.12381735 1.168793 9.4043046e-39
-0.6552518 0.16571653 1.1909531 3.686372e-39
-0.58089048 0.3425062 1.2293338 1.0509182e-38
-0.58787131 0.41828495 1.2626781 5.5324356e-39
-0.58779657 0.44609171 1.2737675 5.9015755e-39
-0.36442286 -0.1454688 0.94004452 1.7604642e-38
-0.36653033 -0.12695731 0.94836479 1.8367099e-40
-0.37772548 -0.1538105 0.94249165 1.6774155e-38
-0.34980682 -0.14541855 0.93371004 1.9447479e-38
-0.35973382 -0.13328886 0.94287747 1.769793e-38
-0.60024017 -0.17158328 1.3377222 9.2267096e-40
-0.632936 -0.19403458 1.4036506 5.5388984e-40
-0.59782577 -0.19386101 1.4017221 2.7622535e-40
-0.61834753 -0.18314829 1.3717344 3.6986292e-40
-0.55510908 -0.13828495 1.2400779 1.0145023e-39
-0.57615769 -0.15355253 1.2848632 7.3684337e-40
-0.54745573 -0.1703237 1.3319495 2.7586522e-40
-0.53471196 -0.1538631 1.2840695 4.5989775e-40
-0.51609796 -0.1360798 1.2321452 8.2867466e-40
-0.47682697 -0.13536143 1.2284797 4.5917748e-40
-0.48561603 -0.15344849 1.2808783 2.7550649e-40
-0.48527044 -0.16802186 1.322795 1.8367099e-40
-0.53289193 -0.11875349 1.182977 2.4892792e-39
-0.48657799 -0.11565163 1.1721671 1.4722406e-39
-0.45525584 -0.13715628 1.2327658 4.5917748e-40
-0.41682994 -0.13656197 1.2294916 6.4284847e-40
-0.4272148 -0.1718436 1.3314277 7.350427e-40
-0.43237287 -0.15435268 1.2813123 7.3468397e-40
-0.36774698 -0.13818067 1.232151 7.3468397e-40
-0.39500841 -0.15737027 1.2884738 5.5101298e-40
-0.3680318 -0.17080419 1.3260281 1.0119841e-39
-0.3560766 -0.15488523 1.2797389 9.1943116e-40
-0.42787006 -0.11017919 1.1540318 1.6544739e-39
-0.4270823 -0.12330403 1.1917628 9.1835496e-40
-0.38635021 -0.097822636 1.1167889 3.4054481e-39
-0.36544326 -0.11135451 1.1548721 1.4700854e-39
-0.36499667 -0.12457387 1.1928892 1.102026e-39
-0.30760035 -0.093407422 1.1008797 2.7582935e-39
-0.25624913 -0.087398447 1.0815001 2.6671754e-39
-0.21054514 -0.080679052 1.0603063 3.7735118e-39
-0.18905398 -0.080226853 1.0581305 4.143002e-39
-0.2040427 -0.09372393 1.0975747 3.4972864e-39
-0.30692598 -0.13894658 1.2318789 1.2871319e-39
-0.30859682 -0.15679532 1.2833019 1.1963726e-39
-0.3034938 -0.16787533 1.314974 1.3804023e-39
-0.25330949 -0.13876277 1.2291676 1.6555501e-39
-0.25806412 -0.1553278 1.2770226 1.7484618e-39
-0.28799719 -0.15895973 1.2886909 1.1967313e-39
-0.35013574 -0.096696123 1.1120734 2.7597284e-39
-0.30450681 -0.11192011 1.154019 1.9310565e-39
-0.3059141 -0.12569267 1.1937032 1.3789674e-39
-0.24765462 -0.11263977 1.1537755 2.0236095e-39
-0.23971035 -0.096927762 1.1082449 2.2083567e-39
-0.24770829 -0.12585415 1.1917984 1.9314153e-39
-0.20926644 -0.10421979 1.1279864 2.8537261e-39
-0.55442071 -0.19416513 1.4008303 2.7550649e-40
-0.57555962 -0.1829747 1.3694932 1.8438846e-40
-0.5344429 -0.18593405 1.3763344 1.8367099e-40
-0.48646829 -0.18130854 1.3610728 3.6734198e-40
-0.42542765 -0.18439949 1.3674815 5.5101298e-40
-0.18756707 -0.083170749 1.0665402 4.0522413e-39
-0.18646236 -0.074646153 1.041968 4.4185113e-39
-0.21726879 -0.076738767 1.049243 3.9582744e-39
-0.27471557 -0.083793484 1.0718794 3.5873241e-39
-0.34461987 -0.092584848 1.1000198 6.8130459e-39
-0.39572456 -0.09711086 1.1151226 3.4043747e-39
-0.44497296 -0.10231607 1.1321038 3.2206995e-39
-0.50410342 -0.11017833 1.1571324 1.4729651e-39
-0.54168761 -0.1167791 1.1776541 8.392654e-39
-0.5679096 -0.1383968 1.2409208 5.5388284e-40
-0.58523232 -0.15016186 1.2754768 9.2232904e-40
-0.59525448 -0.15691072 1.2953027 1.1074252e-39
-0.62046373 -0.1717581 1.3390483 5.1661727e-39
-0.63367498 -0.18536606 1.3787395 1.0145177e-39
-0.64641172 -0.19663633 1.411685 1.0145051e-39
-0.59619808 -0.19857217 1.415211 1.8367099e-40
-0.5692783 -0.20119047 1.4216485 0
-0.50534779 -0.19265437 1.3944858 4.5917748e-40
-0.44434506 -0.18532571 1.3709162 5.5101298e-40
-0.40951371 -0.1858301 1.3709497 0
-0.30504602 -0.17070891 1.32319 6.4464354e-40
-0.27683124 -0.16777584 1.3136024 2.2994747e-39
-0.23956291 -0.15776671 1.2832868 1.8424496e-39
-0.23585773 -0.13702162 1.2234476 2.1158037e-39
-0.21543229 -0.11705314 1.165162 1.2882081e-39
-0.20071456 -0.10076964 1.1177114 3.0373873e-39
-0.18843438 -0.087655708 1.0794798 3.9596883e-39
-0.4808163 0.40357125 1.2636328 8.1131748e-39
-0.49696094 0.38764817 1.3103069 7.0975921e-39
-0.46386957 0.38722 1.3120641 1.2074346e-38
-0.44314706 0.40260059 1.2670572 1.2811915e-38
-0.41773272 0.39309236 1.2954531 1.373278e-38
-0.39048439 0.41183397 1.2406412 1.3733873e-38
-0.38666186 0.40200898 1.2696466 1.4285959e-38
-0.34456301 0.40278143 1.2680018 1.4838773e-38
-0.33297864 0.41630813 1.22832 1.4471431e-38
-0.288894 0.41198906 1.2417064 1.5023523e-38
-0.2382755 0.41171905 1.2432604 1.3365447e-38
-0.21463096 0.39603877 1.2898148 7.5574899e-39
-0.20576495 0.41754383 1.2265854 1.3181058e-38
-0.19355454 0.40517059 1.2632247 9.4943198e-39
-0.19990332 0.38608104 1.319375 5.2529607e-39
-0.31465629 0.42859557 1.1923909 1.4103017e-38
-0.26416287 0.4313978 1.1848911 1.4379245e-38
-0.20551334 0.44053981 1.158834 1.4379605e-38
-0.21478751 0.43046117 1.1883906 1.4471798e-38
-0.16595493 0.44080049 1.1586586 1.4380322e-38
-0.17731024 0.42467985 1.2059861 1.4196649e-38
-0.51960242 0.37748212 1.3399205 6.1777868e-39
-0.52155435 0.37682587 1.3418249 3.8725247e-39
-0.51146775 0.38545537 1.3165501 5.5331671e-39
-0.5040099 0.39012533 1.3029023 6.3607432e-39
-0.43613884 0.41123784 1.2417135 1.3180342e-38
-0.3951636 0.41715965 1.2248794 1.3366165e-38
-0.35462934 0.42156288 1.2125131 1.4101936e-38
-0.30463859 0.42957318 1.1896605 1.4471439e-38
-0.26478997 0.43498182 1.1743217 1.4287412e-38
-0.1953478 0.44570524 1.1437669 1.3642037e-38
-0.15677431 0.44961196 1.132834 1.4379961e-38
-0.15722711 0.44117898 1.157674 1.4932779e-38
-0.1685687 0.43155649 1.1858557 1.4379961e-38
-0.17821878 0.42308688 1.2106661 1.4197365e-38
-0.18469575 0.41153881 1.2445941 1.0784691e-38
-0.19729333 0.39060807 1.3060757 5.5288259e-39
-0.19779046 0.38400084 1.3255357 5.2526047e-39
-0.2021641 0.38151607 1.3327913 5.2518887e-39
-0.21581154 0.38774115 1.3142452 4.7934161e-39
-0.37368563 0.39696315 1.2847081 1.4655104e-38
-0.40480679 0.39347169 1.2945291 1.4101918e-38
-0.43819904 0.38787234 1.3105266 1.32718e-38
-0.47535926 0.38294148 1.3244982 1.1430045e-38
-0.51566768 0.37685269 1.3418339 4.517897e-39
-0.74179715 0.36421499 1.3756816 9.4964778e-39
-0.77801532 0.34434223 1.433692 9.5879531e-39
-0.77515578 0.35192037 1.4114066 9.6794299e-39
-0.74352634 0.35081428 1.4151396 1.0048204e-38
-0.69077015 0.36789227 1.3656114 1.0140763e-38
-0.67407858 0.38255453 1.3226607 8.0213491e-39
-0.65848607 0.38166174 1.3255248 9.2195294e-39
-0.62687856 0.38441676 1.3178811 1.0509185e-38
-0.70326185 0.35420582 1.4057499 1.041591e-38
-0.73499995 0.37155426 1.354159 9.312811e-39
-0.64423746 0.38483107 1.3164002 1.004965e-38
-0.61919248 0.38625497 1.3125801 1.0508829e-38
-0.63846034 0.37866569 1.3346524 1.0416989e-38
-0.66509551 0.36828995 1.3648243 1.0416633e-38
-0.69420666 0.35455388 1.4048601 1.0416269e-38
-0.751854 0.34672391 1.4270666 1.0139679e-38
-0.78664482 0.33853197 1.4506819 9.403929e-39
-0.79184878 0.34337774 1.4363264 9.6794299e-39
-0.7708891 0.35650787 1.397954 9.4964778e-39
-0.75149268 0.36787122 1.3647635 9.3124537e-39
-0.097077213 -0.30224606 0.76754552 1.899373e-38
-0.098486356 -0.29536206 0.76871437 1.9637655e-38
-0.10314598 -0.28921324 0.76900005 1.9636217e-38
-0.096521839 -0.28519014 0.7741276 1.7332048e-38
-0.097836845 -0.27552795 0.7761786 2.0189023e-38
-0.10193412 -0.26735631 0.77688891 2.0004267e-38
-0.097722985 -0.26673192 0.77784616 2.0097187e-38
-0.15055786 -0.28935698 0.78900003 1.1054399e-38
-0.096827328 -0.25490984 0.78279513 1.9635854e-38
-0.097020455 -0.2451631 0.78578949 1.9912799e-38
-0.097591542 -0.23696513 0.78871429 2.01883e-38
-0.15483336 -0.30202919 0.79200006 9.1214889e-39
-0.095218264 -0.23434563 0.79322594 1.7146581e-38
-0.096986942 -0.22521991 0.79473686 1.9727686e-38
-0.098235145 -0.21605781 0.79669583 2.0187584e-38
-0.15516074 -0.28574648 0.80085725 1.558031e-38
-0.1609937 -0.26454031 0.80900002 7.0903783e-39
-0.1545372 -0.26410589 0.80454558 1.0776364e-38
-0.15301636 -0.25549093 0.80433345 1.1513584e-38
-0.096230738 -0.20489997 0.80414635 1.9265992e-38
-0.096994311 -0.19492145 0.80668408 2.0187578e-38
-0.097267427 -0.1865005 0.8085556 2.0279413e-38
-0.15782331 -0.26351354 0.81459999 1.1235893e-38
-0.15764248 -0.25750536 0.8136667 1.1697611e-38
-0.094033584 -0.1847119 0.81485718 1.6685241e-38
-0.096244037 -0.17518266 0.81325662 1.9635123e-38
-0.096227035 -0.16483626 0.81713337 1.9818437e-38
-0.095390581 -0.15522648 0.82279986 1.9081592e-38
-0.097172715 -0.14555266 0.82514828 2.0370883e-38
-0.10247269 -0.13706629 0.82900012 2.0371596e-38
-0.098215975 -0.13569584 0.82900023 2.055527e-38
-0.15276997 -0.17621605 0.83378261 1.3632248e-38
-0.15086956 -0.16571699 0.83766681 1.4093248e-38
-0.094670296 -0.13422701 0.8344546 1.8343675e-38
-0.095914841 -0.12540254 0.83521622 1.9910629e-38
-0.096289717 -0.11534528 0.83606237 2.0370886e-38
-0.098118812 -0.10900456 0.83900005 2.0831124e-38
-0.15703554 -0.17480031 0.84500003 1.3539353e-38
-0.15491904 -0.16557042 0.84549999 1.3907393e-38
-0.15205123 -0.15451328 0.84422237 1.4460565e-38
-0.14844659 -0.15445849 0.84115374 1.455242e-38
-0.09531448 -0.10488329 0.84379065 1.9357814e-38
-0.096206523 -0.095377572 0.84611779 2.0371603e-38
-0.097168058 -0.08573959 0.84845459 2.0462706e-38
-0.096757695 -0.078894734 0.84900004 2.0370517e-38
-0.15592305 -0.1618914 0.85100001 1.2893304e-38
-0.095967188 -0.074662857 0.85317242 2.0093935e-38
-0.096867532 -0.065928474 0.85655999 2.0186485e-38
-0.10041603 -0.05829395 0.85800004 1.9910243e-38
-0.097532682 -0.057416406 0.85799992 2.0094272e-38
-0.095654488 -0.044856481 0.86514634 2.0001736e-38
-0.096818373 -0.035054971 0.86865532 2.0001729e-38
-0.097513385 -0.028949287 0.86900002 1.9909517e-38
-0.16163981 -0.11006901 0.87800002 2.7647549e-39
-0.15653321 -0.11071862 0.87100005 2.7644045e-39
-0.16201104 -0.10386845 0.87535304 2.5771406e-39
-0.15705563 -0.10444556 0.87300009 2.5778511e-39
-0.16185458 -0.095885418 0.87500012 2.2998335e-39
-0.15598863 -0.094368674 0.87347072 2.0239682e-39
-0.15123387 -0.074974187 0.87766677 3.7745922e-39
-0.094642945 -0.02447531 0.87328565 1.9357087e-38
-0.095814154 -0.015811473 0.87576675 1.9632592e-38
-0.16483672 -0.104148 0.88000005 2.3934654e-39
-0.16316053 -0.099079698 0.88066667 2.5767749e-39
-0.1596936 -0.09874773 0.88000005 2.3005509e-39
-0.1568723 -0.083978236 0.88244456 2.3927452e-39
-0.15411955 -0.075552501 0.8824445 3.6831098e-39
-0.15217133 -0.064491585 0.88436371 4.3281107e-39
-0.14876112 -0.06220958 0.88150001 3.5901939e-39
-0.15137951 -0.056522865 0.88325006 7.8261258e-39
-0.092991166 -0.012751624 0.88284224 1.7790857e-38
-0.095098615 -0.0047375928 0.88302433 1.8988668e-38
-0.094772354 0.0046648653 0.88613874 1.9172336e-38
-0.097092994 0.012520145 0.88886672 1.935636e-38
-0.2226088 -0.15065764 0.89600003 1.6866353e-38
-0.22304571 -0.14686301 0.89672726 1.7604983e-38
-0.21799746 -0.146493 0.89771438 1.7328783e-38
-0.16397381 -0.13236503 0.89727277 2.2030735e-38
-0.15849257 -0.13181648 0.89499998 2.1937829e-38
-0.16410984 -0.12581205 0.89677429 2.184635e-38
-0.15686828 -0.124694 0.8916316 2.2030385e-38
-0.16222604 -0.1170975 0.89642876 7.4660215e-39
-0.15799832 -0.11825727 0.89466667 1.336581e-38
-0.15856533 -0.080454327 0.89100003 3.4058083e-39
-0.15856533 -0.078892112 0.89100003 3.4990759e-39
-0.15491882 -0.065727651 0.89250004 4.2359207e-39
-0.093480192 0.015887804 0.89302963 1.7883043e-38
-0.094722092 0.025053965 0.89300013 1.8526971e-38
-0.096754447 0.033939149 0.89728582 1.8987216e-38
-0.097913809 0.04280654 0.89799994 1.8895015e-38
-0.46834067 -0.35571352 0.90657151 1.1622416e-38
-0.477608 -0.34944984 0.90800005 1.2449277e-38
-0.22226207 -0.14480481 0.90685725 1.7513514e-38
-0.21762724 -0.14534958 0.90600002 1.7513522e-38
-0.18069503 -0.14089435 0.90800005 2.0182487e-38
-0.19402701 -0.13467258 0.90675014 2.1661605e-38
-0.1851517 -0.13484557 0.90554297 2.1569047e-38
-0.17556649 -0.13387808 0.90222585 2.1845272e-38
-0.16690703 -0.13543347 0.90100008 2.2673952e-38
-0.19227457 -0.12797038 0.90780002 2.1477934e-38
-0.18479449 -0.12546597 0.90466678 2.0093919e-38
-0.17525657 -0.12477075 0.90200013 2.0923674e-38
-0.16846077 -0.12368939 0.90122223 2.1569035e-38
-0.17460328 -0.11816663 0.90336841 3.9622303e-39
-0.16691945 -0.11690634 0.90308344 3.0417215e-39
-0.15170264 -0.013720564 0.9028334 1.2985071e-38
-0.15120132 -0.0063330401 0.90300006 1.3077612e-38
-0.092524089 0.036152922 0.90207148 1.7606096e-38
-0.094029829 0.04563088 0.90300018 1.8435131e-38
-0.096438639 0.054823067 0.90626931 1.8619515e-38
-0.10109369 0.061293025 0.90800005 1.8251456e-38
-0.099501669 0.061293025 0.90800005 1.8343653e-38
-0.47366017 -0.35164964 0.91135716 1.2451072e-38
-0.46955511 -0.35172692 0.91060001 1.1621695e-38
-0.47578213 -0.34521294 0.91338295 1.272659e-38
-0.46983284 -0.34977335 0.91300005 1.0606813e-38
-0.47558331 -0.33569881 0.91637498 1.2634391e-38
-0.22595923 -0.14376558 0.91616672 1.8066323e-38
-0.21475819 -0.14137815 0.91557145 1.9910246e-38
-0.20512773 -0.14022283 0.91400003 2.1568324e-38
-0.19529679 -0.1416702 0.91300005 2.0460886e-38
-0.18443927 -0.14211884 0.91074997 2.0181775e-38
-0.17813341 -0.14170791 0.91120005 2.0182491e-38
-0.21432976 -0.13502787 0.91680014 2.1108793e-38
-0.20452873 -0.13440849 0.91230565 2.120099e-38
-0.19651654 -0.13588627 0.90999997 2.1568682e-38
-0.1890707 -0.13960917 0.91000003 2.1288125e-38
-0.2127015 -0.12744406 0.91745466 1.9080486e-38
-0.19553407 -0.12408914 0.9119643 1.4839499e-38
-0.1890707 -0.1220583 0.91000003 1.1428255e-38
-0.19317846 -0.11943327 0.91433334 0
-0.18858458 -0.11906317 0.91150004 0
-0.15447655 -0.0088043632 0.91300005 1.3078005e-38
-0.094829604 0.064839557 0.91310519 1.8250742e-38
-0.095671929 0.0754513 0.91489321 1.8434405e-38
-0.095003501 0.084799238 0.91487914 1.806634e-38
-0.096372403 0.091543719 0.9180001 1.8064906e-38
-0.47175646 -0.34441459 0.92145461 1.0147287e-38
-0.46885115 -0.3419407 0.92560017 8.5777739e-39
-0.47228789 -0.3344622 0.92179996 1.152913e-38
-0.46860743 -0.33359495 0.92457151 9.4068171e-39
-0.47522295 -0.32556817 0.92188239 1.2819143e-38
-0.46901318 -0.32563347 0.92400014 9.3164376e-39
-0.17905039 -0.30648267 0.92000002 1.0685607e-38
-0.24373858 -0.1426961 0.92800009 2.1661961e-38
-0.23534565 -0.14291652 0.92288244 2.0738924e-38
-0.22548936 -0.14284882 0.92060012 2.0555259e-38
-0.21577649 -0.14296931 0.92285717 2.0647815e-38
-0.20795497 -0.14322191 0.92300004 2.0832199e-38
-0.24447772 -0.13518631 0.9273572 2.0740371e-38
-0.23475258 -0.13511939 0.92375624 2.0832563e-38
-0.22445121 -0.13514116 0.92053831 2.1016594e-38
-0.21857053 -0.13953027 0.92000002 2.1752713e-38
-0.24406399 -0.12691326 0.92800021 7.8337222e-39
-0.23510405 -0.12638512 0.92699993 9.2155735e-39
-0.22471474 -0.12613206 0.9236452 1.2166551e-38
-0.2169375 -0.12544651 0.92111772 1.225982e-38
-0.15169607 0.035699036 0.92533338 1.3260955e-38
-0.14876574 0.035576232 0.92225015 1.326095e-38
-0.150548 0.043823034 0.92575002 1.3262731e-38
-0.091622181 0.074523687 0.92000002 1.7975237e-38
-0.091138266 0.087912135 0.92000002 1.8250745e-38
-0.094104931 0.09619391 0.92385709 1.742027e-38
-0.094884031 0.10543226 0.92509514 1.742062e-38
-0.095456146 0.11254063 0.92800015 1.7328779e-38
-0.23435929 -0.37086332 0.93800002 5.9040782e-39
-0.47205868 -0.34650248 0.93000007 9.1298687e-39
-0.48477769 -0.29511407 0.93251127 1.2449278e-38
-0.47579876 -0.29519045 0.93465787 1.3094298e-38
-0.46867388 -0.29200101 0.93300003 1.1989053e-38
-0.47642326 -0.28539991 0.93665695 1.3185766e-38
-0.46934366 -0.28750253 0.93433344 1.3647841e-38
-0.48252821 -0.27863348 0.93687499 1.2632952e-38
-0.47951475 -0.27951202 0.93500006 1.2817341e-38
-0.27054107 -0.15130565 0.93800002 1.8893194e-38
-0.26486194 -0.15047204 0.93537498 1.8893189e-38
-0.246694 -0.15212797 0.93800002 1.9723315e-38
-0.27124593 -0.14366989 0.93800008 2.0186838e-38
-0.26511848 -0.14445613 0.93790609 2.0370871e-38
-0.2550759 -0.14356127 0.93455547 2.0832206e-38
-0.24639216 -0.14510195 0.93184626 2.0186464e-38
-0.21277708 -0.14648792 0.93350005 1.8712776e-38
-0.20857215 -0.14640947 0.93300003 2.0186114e-38
-0.27177459 -0.13527055 0.93799996 1.8526962e-38
-0.26532689 -0.13471577 0.93699992 1.9816977e-38
-0.25501218 -0.13507009 0.9320001 2.0647095e-38
-0.2486665 -0.1320786 0.93000007 2.1108797e-38
-0.27218568 -0.12910321 0.93800008 0
-0.26510069 -0.12803471 0.93620014 0
-0.25404036 -0.12768058 0.93137503 4.4232196e-39
-0.2486665 -0.12718681 0.93000007 6.8202934e-39
-0.15295291 0.043350291 0.93300003 1.33535e-38
-0.09419553 0.11670639 0.93094736 1.7144761e-38
-0.095091723 0.12475481 0.9351176 1.7327713e-38
-0.09531074 0.13447151 0.93611419 1.7236228e-38
-0.096539579 0.14127342 0.93800002 1.7051468e-38
-0.27425638 -0.37315497 0.94800007 1.1701574e-38
-0.27419245 -0.36558872 0.94777787 1.1885612e-38
-0.26843885 -0.36733735 0.94800007 8.9375278e-39
-0.27293643 -0.35770664 0.94800007 1.2070353e-38
-0.22635224 -0.34434983 0.94230789 1.5855482e-38
-0.22467367 -0.33543789 0.94432265 1.4933513e-38
-0.22190276 -0.32729018 0.94659996 1.1701927e-38
-0.47273958 -0.29254368 0.94000006 1.0977028e-38
-0.47240511 -0.2833716 0.94042879 1.3187216e-38
-0.46881548 -0.28062844 0.94150007 1.0421335e-38
-0.47412851 -0.2745645 0.94219637 1.3002458e-38
-0.46898204 -0.27832764 0.9435001 1.0329864e-38
-0.47494233 -0.26583329 0.94603336 1.3554194e-38
-0.47205344 -0.25431046 0.94800007 1.419957e-38
-0.47122237 -0.24849291 0.94800007 1.4019496e-38
-0.46956021 -0.24849291 0.94800007 1.4019496e-38
-0.17332928 -0.19323312 0.94600004 1.4553844e-38
-0.27571592 -0.15164039 0.94350004 1.8985751e-38
-0.26617354 -0.15245233 0.94000006 1.9354188e-38
-0.25358784 -0.15154383 0.94633341 1.9722225e-38
-0.24804407 -0.15080419 0.94000006 1.9262696e-38
-0.29367137 -0.14288957 0.94762504 1.9634029e-38
-0.28501663 -0.1438638 0.94509095 1.9910608e-38
-0.27570194 -0.14503461 0.94087523 2.0095003e-38
-0.26452538 -0.14915606 0.94000006 1.9999535e-38
-0.25669676 -0.14791997 0.94000006 2.0460886e-38
-0.2496922 -0.14915606 0.94000006 1.898683e-38
-0.30250463 -0.13127106 0.94685721 0
-0.29438925 -0.13452344 0.94779998 1.1245321e-38
-0.28398505 -0.13621227 0.94417393 1.8896815e-38
-0.27623335 -0.13527142 0.94030017 1.908013e-38
-0.29938692 -0.12854563 0.94600004 1.8367099e-39
-0.094483651 0.14545092 0.94234395 1.6867807e-38
-0.09443818 0.15462095 0.94577384 1.6867092e-38
-0.088925563 0.15042548 0.94800007 1.3089628e-38
-0.096088111 0.1630926 0.94789475 1.6590861e-38
-0.26470634 -0.37405759 0.95467645 7.1868913e-39
-0.25978351 -0.37580332 0.95900005 5.621718e-39
-0.24128759 -0.37580332 0.95900005 5.9055412e-39
-0.26638681 -0.36527464 0.95376676 7.8308202e-39
-0.27522027 -0.35356429 0.95144463 1.1885603e-38
-0.26791772 -0.35510275 0.95445007 7.5545934e-39
-0.27479315 -0.34496629 0.95511359 1.1423901e-38
-0.26738903 -0.34499642 0.95728564 7.4605887e-39
-0.23358345 -0.34158528 0.95500004 8.4834217e-39
-0.27353978 -0.33573395 0.95872718 1.2069637e-38
-0.26850557 -0.33783764 0.95862502 8.8446134e-39
-0.23160461 -0.33611554 0.95375007 1.1156366e-38
-0.22903617 -0.33227631 0.9528001 1.7330585e-38
-0.47141767 -0.27200183 0.95175004 1.0052576e-38
-0.48553929 -0.26220021 0.95130008 1.2908819e-38
-0.47549868 -0.26333699 0.95413053 1.2909186e-38
-0.53049648 -0.25810206 0.95900005 1.1528058e-38
-0.52881497 -0.25810206 0.95900005 1.1435864e-38
-0.47609186 -0.25458008 0.95189673 1.3553835e-38
-0.48420045 -0.24502905 0.95612115 1.2816972e-38
-0.47597429 -0.24510764 0.95624232 1.3554909e-38
-0.47652197 -0.23775654 0.95900005 1.3461638e-38
-0.1766514 -0.19593835 0.95650005 1.4278364e-38
-0.30013824 -0.16057816 0.95900005 1.8523689e-38
-0.29509389 -0.16099852 0.95900005 1.8523682e-38
-0.32115632 -0.15048948 0.95900005 1.9173409e-38
-0.31414986 -0.15367071 0.95748138 1.9262713e-38
-0.30453816 -0.15414158 0.95400017 1.926234e-38
-0.29613188 -0.15492105 0.95604175 1.9170148e-38
-0.28579605 -0.15485638 0.95826662 1.9261985e-38
-0.25594896 -0.15256894 0.95100003 1.9812976e-38
-0.3227281 -0.14442167 0.95899981 1.9265245e-38
-0.31477967 -0.14437538 0.9574998 1.9265959e-38
-0.30463135 -0.14500663 0.95257163 1.9358165e-38
-0.29631534 -0.14710395 0.95117658 2.000281e-38
-0.28681904 -0.14883521 0.95200008 2.0463065e-38
-0.32332447 -0.13526796 0.95899981 6.1752855e-39
-0.31481269 -0.13635005 0.95899981 1.0047861e-38
-0.30457535 -0.13691965 0.95445478 1.5116084e-38
-0.29456875 -0.13454816 0.95146173 1.1705196e-38
-0.28679624 -0.13297674 0.95100003 1.032118e-38
-0.090874389 0.15923861 0.95100003 1.6775266e-38
-0.093856379 0.16683844 0.95275015 1.6591227e-38
-0.095180064 0.17459263 0.95377433 1.6406472e-38
-0.095590942 0.18410939 0.95703101 1.6129886e-38
-0.097523905 0.19084419 0.95900005 1.594585e-38
-0.25367203 -0.38083228 0.96375 2.5861818e-39
-0.24711524 -0.38190538 0.96700007 1.2721216e-38
-0.26101786 -0.3723405 0.96200007 6.449678e-39
-0.25451735 -0.37480944 0.96482646 2.0340856e-39
-0.24542886 -0.3744441 0.96434802 9.1284618e-39
-0.26306647 -0.36377537 0.96333349 6.8184591e-39
-0.25786361 -0.3656081 0.96573699 3.8732884e-39
-0.24368748 -0.36862969 0.96516675 7.56218e-39
-0.23916519 -0.36424097 0.96400005 8.2035768e-39
-0.26403153 -0.35582453 0.96429181 7.0928908e-39
-0.25855967 -0.3585926 0.96700007 5.0681967e-39
-0.26426879 -0.34486544 0.96433342 8.106677e-39
-0.23651853 -0.34502882 0.96700007 8.4819783e-39
-0.2653071 -0.33507231 0.96340013 8.1974447e-39
-0.26684859 -0.32520366 0.96286964 8.842084e-39
-0.26842403 -0.31830373 0.96437502 1.1423185e-38
-0.23023546 -0.30192047 0.96200007 1.1615184e-38
-0.23023546 -0.29517365 0.96200007 9.3117292e-39
-0.22798651 -0.29320583 0.96200007 1.6039502e-38
-0.230395 -0.282718 0.96266675 8.4830769e-39
-0.52532482 -0.26488063 0.9642505 1.2358532e-38
-0.47480792 -0.26143953 0.96200007 1.0055084e-38
-0.54078162 -0.25409761 0.96645463 1.1434776e-38
-0.53523511 -0.25487116 0.9651202 1.171136e-38
-0.52631587 -0.25588638 0.96576512 1.2358893e-38
-0.47480792 -0.25047594 0.96200007 1.2359273e-38
-0.47385201 -0.24696998 0.96280015 1.2081956e-38
-0.47558168 -0.23437136 0.96312916 1.3370882e-38
-0.48445863 -0.22495686 0.96409702 1.300101e-38
-0.47734174 -0.22571388 0.96604025 1.3738215e-38
-0.47478551 -0.21559002 0.96700048 1.3646384e-38
-0.47197741 -0.20790741 0.96700007 1.4292476e-38
-0.3521392 -0.16111931 0.96657157 1.7142214e-38
-0.29882821 -0.16220495 0.96200007 1.8706995e-38
-0.33542681 -0.15314519 0.96576476 1.8989026e-38
-0.32469103 -0.15332167 0.96200001 1.926416e-38
-0.3179442 -0.15770707 0.96200007 1.796873e-38
-0.30192047 -0.15855041 0.96200007 1.8892831e-38
-0.29299644 -0.15516151 0.96230775 1.9169792e-38
-0.28870794 -0.15545814 0.96200007 1.8800291e-38
-0.34333336 -0.14556849 0.96700013 1.87128e-38
-0.33576548 -0.14546664 0.96473372 1.8989384e-38
-0.32871321 -0.14538115 0.96200001 1.8989026e-38
-0.34299424 -0.13733335 0.96700013 4.2370221e-39
-0.33562258 -0.13569917 0.96571469 4.7001582e-39
-0.32769963 -0.13552141 0.96216667 6.9121233e-39
-0.091015287 0.18625136 0.96257144 1.5209387e-38
-0.09429042 0.19536534 0.96283877 1.5761826e-38
-0.094525523 0.2047089 0.96373546 1.5668912e-38
-0.088874273 0.20483536 0.96550006 1.4563659e-38
-0.089012347 0.21108642 0.96700007 1.4933875e-38
-0.24481004 -0.38470149 0.97300005 6.272502e-39
-0.25377706 -0.36486718 0.97220677 1.7600365e-39
-0.24517435 -0.36527786 0.97296864 5.9030398e-39
-0.23908365 -0.36289442 0.97400004 8.4779846e-39
-0.26164395 -0.35364583 0.97171438 6.4503982e-39
-0.25611168 -0.35506243 0.97470003 2.4946882e-39
-0.24246047 -0.35601056 0.97605896 7.838432e-39
-0.23875302 -0.35489985 0.97414285 9.0340787e-39
-0.26160669 -0.34620926 0.9715001 7.093967e-39
-0.25514039 -0.3448236 0.97497302 3.0478676e-39
-0.24302673 -0.34527111 0.97680008 8.3912471e-39
-0.2388529 -0.34345093 0.97266674 8.1142846e-39
-0.26184332 -0.33366719 0.9715001 7.1868829e-39
-0.25726017 -0.33571526 0.97519225 4.149518e-39
-0.24097581 -0.3357265 0.97666669 9.129161e-39
-0.23749903 -0.33456424 0.97473353 8.206469e-39
-0.2633011 -0.3249706 0.9735834 7.8308174e-39
-0.25892878 -0.32751915 0.97800004 6.2660182e-39
-0.23835164 -0.32751915 0.97800004 7.5618311e-39
-0.26543069 -0.31471264 0.9727298 9.0279102e-39
-0.23749426 -0.31894535 0.97800004 8.3897925e-39
-0.27515832 -0.30469128 0.97009075 1.2159661e-38
-0.26620281 -0.30488953 0.97327787 1.0040986e-38
-0.23577949 -0.30951416 0.97800004 1.0137178e-38
-0.2664746 -0.29538167 0.97372401 1.0409408e-38
-0.23215009 -0.29167578 0.97000003 8.2050383e-39
-0.26763043 -0.2885955 0.976125 1.1240608e-38
-0.23215009 -0.28912467 0.97000003 8.1128567e-39
-0.23062755 -0.27403176 0.97075003 1.0875832e-38
-0.53590107 -0.25085816 0.97000009 1.1620244e-38
-0.5352152 -0.24485774 0.97269994 1.1895396e-38
-0.47499123 -0.22473763 0.97030014 1.3831144e-38
-0.23063523 -0.22463356 0.97800004 1.0324445e-38
-0.47739586 -0.21106103 0.97000009 1.3370876e-38
-0.23178788 -0.21282554 0.97420007 6.54661e-39
-0.22710334 -0.21462953 0.97604173 1.2810124e-38
-0.47461143 -0.20374295 0.97079968 1.3646385e-38
-0.46855205 -0.20323764 0.97000003 1.0698283e-38
-0.23063523 -0.20148429 0.97800004 7.6536848e-39
-0.47580788 -0.19576633 0.97686696 1.346308e-38
-0.23292157 -0.19919795 0.97800004 3.6903657e-39
-0.37191314 -0.16196111 0.97750008 1.6958905e-38
-0.36458254 -0.16297673 0.97253847 1.7050371e-38
-0.35828781 -0.16185312 0.97000015 1.73266e-38
-0.33523557 -0.16033006 0.97800004 1.7602468e-38
-0.32350725 -0.16303575 0.97366667 1.8521909e-38
-0.37326288 -0.15377365 0.97799999 1.8252532e-38
-0.34269777 -0.1581682 0.97000003 1.8248928e-38
-0.33497784 -0.15786444 0.97600007 1.8986843e-38
-0.32569045 -0.1581682 0.97000003 1.8432575e-38
-0.3732788 -0.14565407 0.97733337 1.6315709e-38
-0.36515996 -0.14528964 0.97634405 1.5117169e-38
-0.37124553 -0.13975294 0.97800004 0
-0.36610124 -0.13918135 0.9780001 0
-0.3450788 -0.13554844 0.97000009 8.2723693e-40
-0.33929631 -0.13180684 0.97000003 6.4392467e-40
-0.0949573 0.21760121 0.97046173 1.5484525e-38
-0.088646397 0.215314 0.97333336 1.3089605e-38
-0.095362023 0.22495466 0.97248548 1.5392325e-38
-0.089228302 0.22435518 0.97555566 1.3919371e-38
-0.094503887 0.23531434 0.97682166 1.5115745e-38
-0.096369512 0.24229561 0.9780001 1.5023548e-38
-0.25177079 -0.36250082 0.98166668 9.3135761e-40
-0.2481989 -0.36240822 0.98100007 4.2453472e-39
-0.25161672 -0.35570556 0.98124999 6.5621686e-40
-0.2474844 -0.35399336 0.98100007 4.6155689e-39
-0.25054961 -0.34429067 0.98100007 9.3280936e-40
-0.24744833 -0.34455127 0.98100007 4.2467835e-39
-0.25319558 -0.33418027 0.98200005 2.0359073e-39
-0.24651073 -0.33501384 0.98238456 4.1531544e-39
-0.26115638 -0.32279044 0.98100007 7.3701965e-39
-0.25485209 -0.32433188 0.98352635 3.2308183e-39
-0.23920564 -0.32373232 0.98100007 7.6543911e-39
-0.26127106 -0.31476367 0.98100007 7.8315222e-39
-0.25503248 -0.31447747 0.98543245 3.8750961e-39
-0.23914096 -0.31533533 0.98212498 8.4816238e-39
-0.2613374 -0.30444553 0.98347056 7.9237192e-39
-0.25792968 -0.30598217 0.98711777 5.9905089e-39
-0.2422463 -0.30657944 0.98900002 8.4834273e-39
-0.23737065 -0.30642077 0.98460007 8.1124671e-39
-0.26219684 -0.29476899 0.98472738 8.3839799e-39
-0.25880647 -0.29782251 0.98900002 7.5545752e-39
-0.23770817 -0.29648167 0.98600006 8.0210072e-39
-0.27342048 -0.28232157 0.98250008 9.0261039e-39
-0.26502487 -0.28485525 0.98474264 7.3691217e-39
-0.26465517 -0.27457219 0.98582333 1.1791243e-38
-0.27470568 -0.26468244 0.98629391 1.4001418e-38
-0.26675206 -0.26565635 0.98742115 1.1144423e-38
-0.28103945 -0.25279924 0.98900002 1.4184728e-38
-0.27580035 -0.25543708 0.98842871 1.4276921e-38
-0.26964426 -0.25837296 0.98900002 1.1789776e-38
-0.23478273 -0.25026292 0.98100007 1.355094e-38
-0.28091556 -0.2488357 0.98900002 1.4185423e-38
-0.27744746 -0.2488357 0.98900002 1.4185068e-38
-0.22296153 -0.21374288 0.98235017 1.6496858e-38
-0.4721455 -0.20038232 0.98100007 1.032951e-38
-0.23227638 -0.20485556 0.98215395 7.6518813e-39
-0.22531036 -0.20524988 0.98472971 1.5391588e-38
-0.47271889 -0.19378892 0.98100007 1.2632956e-38
-0.23153996 -0.19524902 0.9855001 9.0362353e-39
-0.22458826 -0.19521816 0.98533314 1.5391586e-38
-0.47497851 -0.18581277 0.98100001 1.4291032e-38
-0.23176 -0.18904412 0.98766673 9.6805313e-39
-0.22527295 -0.1888831 0.9883334 1.5023158e-38
-0.4744513 -0.17282738 0.98304576 1.3001376e-38
-0.46878523 -0.17345026 0.986 1.0696484e-38
-0.47585157 -0.16577008 0.98726678 1.3829698e-38
-0.4014318 -0.16213337 0.98900002 1.7789392e-38
-0.39588284 -0.16178657 0.9890002 1.7788678e-38
-0.3855468 -0.16113396 0.98877782 1.8250731e-38
-0.37674224 -0.16229835 0.98159999 1.723477e-38
-0.3407428 -0.16217631 0.98400003 1.7141119e-38
-0.33381701 -0.1629633 0.98353869 1.7878691e-38
-0.32834432 -0.1635288 0.98175007 1.8246391e-38
-0.48334 -0.15550318 0.98900008 1.3091765e-38
-0.47772992 -0.15519719 0.9890002 1.3275445e-38
-0.4014318 -0.15866527 0.98900002 1.7423138e-38
-0.39416629 -0.15553367 0.98873925 1.7423143e-38
-0.38502669 -0.1549823 0.98617399 1.7607172e-38
-0.37768874 -0.15572131 0.98137498 1.825182e-38
-0.3367728 -0.15934512 0.98250008 1.898647e-38
