# .PCD v0.7 - Point Cloud Data file format
VERSION 0.7
FIELDS x y z rgb
SIZE 4 4 4 4
TYPE F F F F
COUNT 1 1 1 1
WIDTH 1035
HEIGHT 1
VIEWPOINT 0 0 0 1 0 0 0
POINTS 1035
DATA ascii
-0.93682879 -0.22385333 1.794 1.502789e-38
-0.93263483 -0.22332908 1.794 1.4474717e-38
-0.92791659 -0.22332907 1.794 1.502968e-38
-0.92162561 -0.22332908 1.794 1.5121522e-38
-0.91690743 -0.22332908 1.794 1.521408e-38
-0.91218919 -0.22332908 1.794 1.5213717e-38
-0.907471 -0.22332908 1.794 1.5213714e-38
-0.90275276 -0.22332908 1.794 1.5489223e-38
-0.89803451 -0.22332908 1.794 1.5764734e-38
-0.89331633 -0.22332908 1.794 1.5671821e-38
-0.88702536 -0.22490183 1.794 1.622463e-38
-0.88230711 -0.22490183 1.794 1.6409377e-38
-0.87758893 -0.22175634 1.794 1.54885e-38
-0.87287068 -0.22175634 1.794 1.548851e-38
-0.86972523 -0.22175634 1.794 1.548851e-38
-0.98610795 -0.21861085 1.794 1.3556002e-38
-0.93263483 -0.21861085 1.794 1.4753093e-38
-0.92791659 -0.21703812 1.794 1.466019e-38
-0.92162561 -0.21703811 1.794 1.3369098e-38
-0.91690743 -0.21703812 1.794 1.272445e-38
-0.91218919 -0.21703812 1.794 1.3922983e-38
-0.907471 -0.21861085 1.794 1.4476866e-38
-0.90275276 -0.21861085 1.794 1.5027888e-38
-0.89803451 -0.21861085 1.794 1.5211203e-38
-0.89488906 -0.21861085 1.794 1.5211203e-38
-0.87758893 -0.21703812 1.794 1.5119357e-38
-0.87287068 -0.21703812 1.794 1.5304477e-38
-0.8681525 -0.21703811 1.794 1.521228e-38
-0.86343426 -0.21546538 1.794 1.5304475e-38
-0.8366977 -0.21703811 1.794 1.5672181e-38
-0.83197945 -0.21703812 1.794 1.5763659e-38
-0.82726121 -0.21546538 1.794 1.5671092e-38
-0.78794271 -0.21546538 1.794 1.5855853e-38
-0.7827003 -0.21651387 1.794 1.6040226e-38
-0.77745783 -0.21651387 1.794 1.6041307e-38
-0.77221531 -0.21546538 1.794 1.6499774e-38
-0.76906985 -0.21546538 1.794 1.6591969e-38
-0.8760162 -0.2123199 1.794 1.5212632e-38
-0.87287068 -0.2123199 1.794 1.5029332e-38
-0.8681525 -0.2123199 1.794 1.484458e-38
-0.86186153 -0.2123199 1.794 1.5397029e-38
-0.85714328 -0.2123199 1.794 1.548886e-38
-0.8524251 -0.2123199 1.794 1.5489216e-38
-0.84770685 -0.2123199 1.794 1.5488863e-38
-0.84298861 -0.2123199 1.794 1.5488504e-38
-0.8366977 -0.2123199 1.794 1.5211199e-38
-0.83197945 -0.2123199 1.794 1.5488146e-38
-0.82726121 -0.2123199 1.794 1.5856206e-38
-0.82254303 -0.2123199 1.794 1.5672541e-38
-0.81782478 -0.2123199 1.794 1.5764016e-38
-0.79266095 -0.2123199 1.794 1.5949121e-38
-0.78794271 -0.2123199 1.794 1.5948046e-38
-0.78322452 -0.2123199 1.794 1.6225335e-38
-0.77693355 -0.2123199 1.794 1.6317178e-38
-0.77221531 -0.2123199 1.794 1.6408657e-38
-0.76749712 -0.2123199 1.794 1.6224625e-38
-0.76277888 -0.2123199 1.794 1.650157e-38
-0.75806069 -0.2123199 1.794 1.6409375e-38
-0.75176972 -0.2123199 1.794 1.6224629e-38
-0.74705148 -0.2123199 1.794 1.6869279e-38
-0.74390602 -0.2123199 1.794 1.6684888e-38
-0.86762828 -0.20812593 1.794 1.5211923e-38
-0.86186153 -0.20760168 1.794 1.530411e-38
-0.85714328 -0.20760168 1.794 1.5395944e-38
-0.85242504 -0.20760167 1.794 1.5396297e-38
-0.84770685 -0.20760168 1.794 1.5395943e-38
-0.84298861 -0.20760168 1.794 1.5580337e-38
-0.8366977 -0.20760167 1.794 1.5488144e-38
-0.83197945 -0.20760168 1.794 1.5672894e-38
-0.82726121 -0.20760168 1.794 1.5581059e-38
-0.82254303 -0.20760168 1.794 1.5764374e-38
-0.81782478 -0.20760167 1.794 1.5856211e-38
-0.8131066 -0.20760168 1.794 1.5671459e-38
-0.80996108 -0.20602894 1.794 1.5856922e-38
-0.7973792 -0.20760168 1.794 1.5949837e-38
-0.79266095 -0.20760167 1.794 1.5948762e-38
-0.78794271 -0.20760168 1.794 1.6040961e-38
-0.78322452 -0.20760167 1.794 1.6132788e-38
-0.77693355 -0.20760167 1.794 1.6316466e-38
-0.77221531 -0.20760168 1.794 1.6869634e-38
-0.76749712 -0.20760167 1.794 1.6407937e-38
-0.76277888 -0.20760168 1.794 1.6499771e-38
-0.75806069 -0.20760168 1.794 1.6592331e-38
-0.75176972 -0.20760167 1.794 1.6500495e-38
-0.74705148 -0.20760168 1.794 1.6593051e-38
-0.74233329 -0.20760167 1.794 1.6776362e-38
-0.73761505 -0.20602894 1.794 1.696003e-38
-0.73132408 -0.20602894 1.794 1.7235541e-38
-0.72817862 -0.20602894 1.794 1.6684885e-38
-0.72188765 -0.20917442 1.794 1.714514e-38
-0.86186153 -0.20288345 1.794 1.5487061e-38
-0.85714328 -0.20288345 1.794 1.5763285e-38
-0.8524251 -0.20288345 1.794 1.5855834e-38
-0.84770685 -0.20288345 1.794 1.5671808e-38
-0.84298861 -0.20288345 1.794 1.5672524e-38
-0.8366977 -0.20288345 1.794 1.558069e-38
-0.83197945 -0.20288345 1.794 1.5672889e-38
-0.82726121 -0.20288345 1.794 1.5856201e-38
-0.82254303 -0.20288345 1.794 1.6224263e-38
-0.81782478 -0.20288345 1.794 1.594732e-38
-0.8131066 -0.20288345 1.794 1.5855488e-38
-0.80838835 -0.20288345 1.794 1.6317165e-38
-0.80209738 -0.20288345 1.794 1.6316809e-38
-0.7973792 -0.20288345 1.794 1.6133509e-38
-0.79266095 -0.20288345 1.794 1.6132435e-38
-0.78794271 -0.20288345 1.794 1.6500504e-38
-0.78322452 -0.20288345 1.794 1.6593756e-38
-0.77693355 -0.20288345 1.794 1.6868926e-38
-0.77221531 -0.20288345 1.794 1.6868558e-38
-0.76749712 -0.20288345 1.794 1.6683798e-38
-0.76277888 -0.20288345 1.794 1.6868182e-38
-0.75806069 -0.20288345 1.794 1.7328437e-38
-0.75176972 -0.20288345 1.794 1.7235891e-38
-0.74705148 -0.20288345 1.794 1.6867835e-38
-0.74233329 -0.20288345 1.794 1.6868191e-38
-0.73761505 -0.20288345 1.794 1.7052579e-38
-0.7328968 -0.20288345 1.794 1.7051507e-38
-0.72660589 -0.20288345 1.794 1.6867479e-38
-0.72188765 -0.20288345 1.794 1.7144772e-38
-0.7171694 -0.20288345 1.794 1.7236965e-38
-0.71245122 -0.20288345 1.794 1.7329516e-38
-0.84298861 -0.19816524 1.794 1.5487422e-38
-0.8366977 -0.19816524 1.794 1.5488143e-38
-0.83197945 -0.19816524 1.794 1.5580338e-38
-0.82726121 -0.19816524 1.794 1.5763293e-38
-0.82254303 -0.19816524 1.794 1.585477e-38
-0.81782478 -0.19816524 1.794 1.5854411e-38
-0.8131066 -0.19816524 1.794 1.5854773e-38
-0.80838835 -0.19816524 1.794 1.5855841e-38
-0.80209738 -0.19816524 1.794 1.6039152e-38
-0.7973792 -0.19816524 1.794 1.6039159e-38
-0.79266095 -0.19816524 1.794 1.6039161e-38
-0.78794271 -0.19816524 1.794 1.6039526e-38
-0.78322452 -0.19816524 1.794 1.6040236e-38
-0.77693355 -0.19816524 1.794 1.6408664e-38
-0.77221531 -0.19816524 1.794 1.6591968e-38
-0.76749712 -0.19816524 1.794 1.6407573e-38
-0.76277888 -0.19816524 1.794 1.6591241e-38
-0.75806069 -0.19816524 1.794 1.6683441e-38
-0.75176972 -0.19816524 1.794 1.6867469e-38
-0.74705148 -0.19816524 1.794 1.6683443e-38
-0.74233329 -0.19816524 1.794 1.6683803e-38
-0.73761505 -0.19816524 1.794 1.6960749e-38
-0.7328968 -0.19816524 1.794 1.6868198e-38
-0.72660589 -0.19816524 1.794 1.6867839e-38
-0.72188765 -0.19816524 1.794 1.71437e-38
-0.7171694 -0.19816524 1.794 1.7052219e-38
-0.71245122 -0.19816524 1.794 1.714441e-38
-0.60550487 -0.19659249 1.794 1.8711012e-38
-0.60235941 -0.19659249 1.794 1.8342246e-38
-0.7973792 -0.19187428 1.794 1.2446044e-38
-0.79266095 -0.19187427 1.794 1.2722634e-38
-0.78794271 -0.19187428 1.794 1.2999224e-38
-0.78322452 -0.19187427 1.794 1.2721558e-38
-0.77693355 -0.19187427 1.794 1.2997786e-38
-0.77221531 -0.19344702 1.794 1.465766e-38
-0.76749712 -0.19187427 1.794 1.2814471e-38
-0.76277888 -0.19187428 1.794 1.2907027e-38
-0.75806069 -0.19187427 1.794 1.2814472e-38
-0.75176972 -0.19187428 1.794 1.3182166e-38
-0.74705148 -0.19187428 1.794 1.3275089e-38
-0.74233329 -0.19187428 1.794 1.3182536e-38
-0.73761505 -0.19187428 1.794 1.3182539e-38
-0.7328968 -0.19187428 1.794 1.3182539e-38
-0.72660589 -0.19187428 1.794 1.3275089e-38
-0.72188765 -0.19187428 1.794 1.3366922e-38
-0.7171694 -0.19187428 1.794 1.3551306e-38
-0.71245122 -0.19344702 1.794 1.5393781e-38
-0.60550487 -0.19187428 1.794 1.4563668e-38
-0.60235941 -0.19187428 1.794 1.4563315e-38
-0.59921396 -0.19030154 1.794 1.2259148e-38
-0.76277888 -0.18715605 1.794 1.1341507e-38
-0.75806069 -0.18715605 1.794 1.1064918e-38
-0.75176972 -0.18715605 1.794 1.0973081e-38
-0.74705148 -0.18715605 1.794 1.1157117e-38
-0.74233329 -0.18715605 1.794 1.1156394e-38
-0.73761505 -0.18715605 1.794 1.1063478e-38
-0.7328968 -0.18715605 1.794 1.1338983e-38
-0.72660589 -0.18715605 1.794 1.1247867e-38
-0.72188765 -0.18715605 1.794 1.1524101e-38
-0.71874219 -0.18715605 1.794 1.1524101e-38
-0.60550487 -0.18715605 1.794 1.170669e-38
-0.60235941 -0.18715605 1.794 1.2075835e-38
-0.59921396 -0.18715605 1.794 1.2075835e-38
-0.72660589 -0.18243784 1.794 1.5578906e-38
-0.72188765 -0.18243784 1.794 1.5303405e-38
-0.71769369 -0.1819136 1.794 1.5671468e-38
-0.71245122 -0.18086509 1.794 1.5763302e-38
-0.34757555 -0.0078637004 1.794 2.1844957e-38
-0.33813909 -0.0047182199 1.794 2.2029345e-38
-0.30353883 -0.0031454801 1.794 2.2305569e-38
-0.30353883 0.0031454801 1.794 2.2305569e-38
-0.29410237 0.0031454801 1.794 2.2121902e-38
-0.20288345 0.01258192 1.794 2.2950213e-38
-0.19816524 0.012581919 1.794 2.3043129e-38
-0.19187427 0.01258192 1.794 2.3226801e-38
-0.18715605 0.01258192 1.794 2.3318991e-38
-0.19187428 0.01730014 1.794 2.3043129e-38
-0.020559587 -0.71167803 1.8040001 2.3506633e-38
-0.017396573 -0.71167803 1.8040001 2.3506996e-38
-0.99160469 -0.69744444 1.8040001 1.4939317e-38
-0.98738736 -0.69217277 1.8040003 1.4662365e-38
-0.98527867 -0.68795538 1.8040001 1.5214094e-38
-0.98211563 -0.68795538 1.8040001 1.5121898e-38
-0.98211563 -0.68321085 1.8040001 1.4847472e-38
-0.9773711 -0.68162936 1.8040001 1.4847828e-38
-0.99160469 -0.27043763 1.8040001 1.1437315e-38
-0.98844165 -0.27043763 1.8040001 1.1621707e-38
-0.9330889 -0.27043763 1.8040001 1.1527698e-38
-0.92834443 -0.27043763 1.8040001 1.1619893e-38
-0.99160469 -0.26727462 1.8040001 1.0146574e-38
-0.98686016 -0.26727462 1.8040001 1.0239481e-38
-0.98211563 -0.26727462 1.8040001 1.0331671e-38
-0.9773711 -0.26727462 1.8040001 1.0331675e-38
-0.96630055 -0.26727462 1.8040001 1.0790131e-38
-0.9330889 -0.26727462 1.8040001 1.1067076e-38
-0.96630055 -0.26253009 1.8040001 1.1711011e-38
-0.96313757 -0.26253009 1.8040001 1.1250033e-38
-0.94099647 -0.2609486 1.8040001 1.1619896e-38
-0.93783343 -0.2609486 1.8040001 1.1712092e-38
-0.98527867 -0.25778559 1.8040001 1.1343305e-38
-0.98211563 -0.25778559 1.8040001 1.1435501e-38
-0.97895265 -0.25778559 1.8040001 1.1435501e-38
-0.96630055 -0.25778559 1.8040001 1.1527698e-38
-0.96313757 -0.25778559 1.8040001 1.1619893e-38
-0.95997453 -0.25778559 1.8040001 1.161881e-38
-0.94099647 -0.25778559 1.8040001 1.1527701e-38
-0.93783343 -0.25778559 1.8040001 1.1619896e-38
-0.99160469 -0.25462258 1.8040001 1.1710293e-38
-0.98686016 -0.25462258 1.8040001 1.1802845e-38
-0.98211563 -0.25304109 1.8040001 1.1525534e-38
-0.97895265 -0.25462258 1.8040001 1.2079069e-38
-0.96313757 -0.25462258 1.8040001 1.1986874e-38
-0.94099647 -0.25304109 1.8040001 1.1524818e-38
-0.93783343 -0.25304109 1.8040001 1.1617374e-38
-0.93467045 -0.25145957 1.8040001 1.1155674e-38
-0.90778482 -0.25145957 1.8040001 1.1338986e-38
-0.98211563 -0.24829654 1.8040001 7.0083098e-39
-0.96313757 -0.24513353 1.8040001 6.3647453e-39
-0.95839304 -0.24513353 1.8040001 6.7328201e-39
-0.95364851 -0.24513353 1.8040001 6.7328201e-39
-0.94257796 -0.24671504 1.8040001 6.9154037e-39
-0.93783343 -0.24671504 1.8040001 6.9150436e-39
-0.93467045 -0.24671504 1.8040001 6.7317271e-39
-0.92201841 -0.24513353 1.8040001 7.2831044e-39
-0.91674674 -0.24618787 1.8040003 7.1905459e-39
-0.91252935 -0.24671504 1.8040001 7.1905445e-39
-0.90778482 -0.24671504 1.8040001 7.0983516e-39
-0.90304029 -0.24671504 1.8040001 7.0075951e-39
-0.89987731 -0.24513353 1.8040001 6.8235682e-39
-0.95839304 -0.24197052 1.8040001 1.106457e-38
-0.95206702 -0.24197052 1.8040001 1.0695434e-38
-0.94732249 -0.24197052 1.8040001 1.1062772e-38
-0.94257796 -0.24197052 1.8040001 1.12468e-38
-0.93783343 -0.24197052 1.8040001 1.1523024e-38
-0.92676294 -0.24197052 1.8040001 1.1338986e-38
-0.92201841 -0.24197052 1.8040001 1.1430829e-38
-0.91727388 -0.24197052 1.8040001 1.1430829e-38
-0.91252935 -0.24197052 1.8040001 1.1523024e-38
-0.90778482 -0.24197052 1.8040001 1.152303e-38
-0.90304029 -0.24197052 1.8040001 1.133828e-38
-0.89829576 -0.24197052 1.8040001 1.1615226e-38
-0.89355129 -0.24197052 1.8040001 1.1615227e-38
-0.88406223 -0.24197052 1.8040001 1.1615227e-38
-0.92201841 -0.23722599 1.8040001 1.1983991e-38
-0.91727388 -0.23722599 1.8040001 1.1891434e-38
-0.90304029 -0.2388075 1.8040001 1.2074756e-38
-0.89829576 -0.23722598 1.8040001 1.2075472e-38
-0.8919698 -0.23722598 1.8040001 1.2075471e-38
-0.88722521 -0.23722599 1.8040001 1.2075468e-38
-0.88406223 -0.23722599 1.8040001 1.2076179e-38
-0.88248074 -0.23248148 1.8040001 1.1710993e-38
-0.83661699 -0.23248148 1.8040001 1.2536808e-38
-0.83187246 -0.23248148 1.8040001 1.2444242e-38
-0.84294307 -0.22773695 1.8040001 1.6594129e-38
-0.83819854 -0.22773695 1.8040001 1.6685971e-38
-0.83187246 -0.22773695 1.8040001 1.6869995e-38
-0.82712799 -0.22773695 1.8040001 1.6870354e-38
-0.82396495 -0.22615544 1.8040001 1.6686683e-38
-0.79549783 -0.22615544 1.8040001 1.6871435e-38
-0.79233485 -0.22773695 1.8040001 1.6778521e-38
-0.78759027 -0.22773695 1.8040001 1.7238062e-38
-0.7828458 -0.22773695 1.8040001 1.7606116e-38
-0.77810127 -0.22615544 1.8040001 1.7422086e-38
-0.77335674 -0.22615544 1.8040001 1.7146224e-38
-0.74805266 -0.22615544 1.8040001 1.7790497e-38
-0.74278104 -0.22720979 1.8040003 1.7699752e-38
-0.73698211 -0.22773695 1.8040001 1.7974897e-38
-0.72591156 -0.22615544 1.8040001 1.8341895e-38
-0.72274852 -0.22615544 1.8040001 1.8341895e-38
-0.79707932 -0.22299244 1.8040001 1.6409012e-38
-0.79233485 -0.22299244 1.8040001 1.6409007e-38
-0.78759032 -0.22299244 1.8040001 1.6501204e-38
-0.7828458 -0.22299244 1.8040001 1.659232e-38
-0.77810127 -0.22299244 1.8040001 1.6684521e-38
-0.77177525 -0.22299244 1.8040001 1.6500494e-38
-0.76703072 -0.22299244 1.8040001 1.6409377e-38
-0.76228619 -0.22299244 1.8040001 1.6684166e-38
-0.75754172 -0.22299244 1.8040001 1.6960381e-38
-0.75279713 -0.22299244 1.8040001 1.7052572e-38
-0.74805266 -0.22299244 1.8040001 1.6960731e-38
-0.74330813 -0.22299244 1.8040001 1.7145131e-38
-0.73698211 -0.22299244 1.8040001 1.7236242e-38
-0.73223758 -0.22299244 1.8040001 1.7327015e-38
-0.72749305 -0.22299244 1.8040001 1.7419571e-38
-0.72274852 -0.22299244 1.8040001 1.7512128e-38
-0.71800399 -0.22299244 1.8040001 1.7328443e-38
-0.79233485 -0.21982943 1.8040001 1.5763288e-38
-0.78917181 -0.21982943 1.8040001 1.594875e-38
-0.77810127 -0.21982943 1.8040001 1.6224986e-38
-0.7712481 -0.21877509 1.8040003 1.6408659e-38
-0.76703072 -0.21824792 1.8040001 1.6409017e-38
-0.76228625 -0.21824792 1.8040001 1.6593039e-38
-0.75754172 -0.21824792 1.8040001 1.6500491e-38
-0.75279713 -0.21824792 1.8040001 1.6684522e-38
-0.74805266 -0.21824792 1.8040001 1.6500488e-38
-0.74330819 -0.21824792 1.8040001 1.6500135e-38
-0.73698211 -0.21824792 1.8040001 1.6960746e-38
-0.73223758 -0.21824792 1.8040001 1.7327378e-38
-0.72749305 -0.21824792 1.8040001 1.7142988e-38
-0.72274852 -0.21824792 1.8040001 1.7419578e-38
-0.71800399 -0.21824792 1.8040001 1.6960748e-38
-0.71325952 -0.21824792 1.8040001 1.7146214e-38
-0.68321085 -0.21666642 1.8040001 1.760647e-38
-0.74278104 -0.21244907 1.8040003 1.6776363e-38
-0.73698211 -0.2119219 1.8040001 1.6868205e-38
-0.73223758 -0.2119219 1.8040001 1.6868558e-38
-0.72802019 -0.21244907 1.8040003 1.7052949e-38
-0.72274852 -0.2119219 1.8040001 1.7144784e-38
-0.71800399 -0.2119219 1.8040001 1.6777081e-38
-0.71325952 -0.2119219 1.8040001 1.6961472e-38
-0.68321085 -0.2119219 1.8040001 1.7421726e-38
-0.67846638 -0.21034038 1.8040001 1.7514283e-38
-0.65790677 -0.21034038 1.8040001 1.7791231e-38
-0.65316224 -0.21034038 1.8040001 1.7699763e-38
-0.64999926 -0.21034038 1.8040001 1.5210143e-38
-0.62311363 -0.21034038 1.8040001 1.8157852e-38
-0.61678755 -0.21034038 1.8040001 1.8619184e-38
-0.61204308 -0.2119219 1.8040001 1.8249693e-38
-0.60888004 -0.2119219 1.8040001 1.8250052e-38
-0.68321085 -0.20717737 1.8040001 1.7330968e-38
-0.67846638 -0.20717737 1.8040001 1.7422803e-38
-0.65790677 -0.20717737 1.8040001 1.8250046e-38
-0.65316224 -0.20717737 1.8040001 1.8618475e-38
-0.64841771 -0.20717737 1.8040001 1.5028235e-38
-0.62311363 -0.20717737 1.8040001 1.8158571e-38
-0.61678755 -0.20717737 1.8040001 1.8434795e-38
-0.61204308 -0.20717737 1.8040001 1.8342246e-38
-0.60888004 -0.20717737 1.8040001 1.825005e-38
-0.6626513 -0.20243286 1.8040001 1.8250035e-38
-0.65790677 -0.20243284 1.8040001 1.8066012e-38
-0.65316224 -0.20243286 1.8040001 1.8434803e-38
-0.64841771 -0.20243286 1.8040001 1.8618823e-38
-0.64209169 -0.20243284 1.8040001 1.9262383e-38
-0.63734716 -0.20243286 1.8040001 1.9077999e-38
-0.63312984 -0.2019057 1.8040003 1.8524829e-38
-0.62785816 -0.20243286 1.8040001 1.8433727e-38
-0.62311363 -0.20243286 1.8040001 1.8618105e-38
-0.61678755 -0.20243284 1.8040001 1.86181e-38
-0.61204308 -0.20243286 1.8040001 1.8709941e-38
-0.60729855 -0.20243284 1.8040001 1.8709941e-38
-0.60255402 -0.20243286 1.8040001 1.8894691e-38
-0.59780955 -0.20243284 1.8040001 1.8985803e-38
-0.59306502 -0.20243286 1.8040001 1.9078716e-38
-0.58779335 -0.2019057 1.8040003 1.8986166e-38
-0.58252162 -0.2019057 1.8040003 1.9078363e-38
-0.57724994 -0.20085135 1.8040001 1.9354593e-38
-0.56776088 -0.20085135 1.8040001 1.9354576e-38
-0.5645979 -0.20085135 1.8040001 1.926238e-38
-0.55194581 -0.20085135 1.8040001 1.9448221e-38
-0.54878283 -0.20085135 1.8040001 1.9816636e-38
-0.62785816 -0.19768833 1.8040001 1.8342599e-38
-0.62311363 -0.19768833 1.8040001 1.8526263e-38
-0.61678755 -0.19768833 1.8040001 1.8711009e-38
-0.61204308 -0.19768833 1.8040001 1.8987238e-38
-0.60255402 -0.19768833 1.8040001 1.8434441e-38
-0.59780955 -0.19768833 1.8040001 1.8526277e-38
-0.59306502 -0.19768833 1.8040001 1.8342249e-38
-0.58832049 -0.19768833 1.8040001 1.8618471e-38
-0.58199441 -0.19768833 1.8040001 1.8894691e-38
-0.57724994 -0.19768833 1.8040001 1.9170558e-38
-0.56776088 -0.19768833 1.8040001 1.963152e-38
-0.5645979 -0.19768833 1.8040001 1.9447129e-38
-0.55194581 -0.19768833 1.8040001 1.9354949e-38
-0.54878283 -0.19768833 1.8040001 1.9355299e-38
-0.60255402 -0.19452532 1.8040001 1.695968e-38
-0.59780949 -0.19294381 1.8040001 1.4655151e-38
-0.59306502 -0.19294381 1.8040001 1.4563312e-38
-0.58832049 -0.19294381 1.8040001 1.4563667e-38
-0.58252162 -0.19347098 1.8040003 1.5485256e-38
-0.57724994 -0.19452532 1.8040001 1.7328443e-38
-0.33158925 -0.032157302 1.8040003 2.2029348e-38
-0.32737187 -0.031630132 1.8040001 2.2121539e-38
-0.32262737 -0.031630136 1.8040001 2.2213375e-38
-0.31788284 -0.031630132 1.8040001 2.230521e-38
-0.32104585 -0.026885614 1.8040001 2.2398128e-38
-0.99973047 -0.70092392 1.8130001 1.4845657e-38
-0.99814105 -0.69774514 1.8130001 1.4753477e-38
-0.99337292 -0.69138753 1.8130001 1.5121898e-38
-0.9917835 -0.6866194 1.8130001 1.4939666e-38
-0.9917835 -0.68185115 1.8130001 1.5124059e-38
-0.99019414 -0.67867237 1.8130001 1.484891e-38
-0.98701531 -0.67708302 1.8130001 1.4940026e-38
-0.94251221 -0.27496561 1.8130001 1.4571228e-38
-0.92820764 -0.27337623 1.8130001 1.3003549e-38
-0.93774402 -0.26542923 1.8130001 1.1435498e-38
-0.93297583 -0.26701862 1.8130001 1.143442e-38
-0.92979705 -0.26701862 1.8130001 1.1341863e-38
-0.87257874 -0.26701862 1.8130001 1.1893958e-38
-0.86939996 -0.26701862 1.8130001 1.2077628e-38
-0.63734806 -0.26860803 1.8130001 1.4378202e-38
-0.63416928 -0.26701862 1.8130001 1.4839522e-38
-0.9123137 -0.26225045 1.8130001 1.2261666e-38
-0.88847274 -0.26225045 1.8130001 1.2539701e-38
-0.87257874 -0.26225045 1.8130001 1.2078716e-38
-0.86939996 -0.26225045 1.8130001 1.2078722e-38
-0.87257874 -0.25748226 1.8130001 1.2170909e-38
-0.86939996 -0.25748226 1.8130001 1.2447142e-38
-0.61191773 -0.22092614 1.8130001 1.8342962e-38
-0.60714948 -0.22092614 1.8130001 1.8526986e-38
-0.60238135 -0.22092614 1.8130001 1.8802125e-38
-0.59920251 -0.22092614 1.8130001 1.8433343e-38
-0.57059342 -0.22092614 1.8130001 1.9171264e-38
-0.56741458 -0.22092614 1.8130001 1.8986873e-38
-0.56264639 -0.22092614 1.8130001 1.9079788e-38
-0.55152065 -0.22092614 1.8130001 1.9632605e-38
-0.54834187 -0.22092614 1.8130001 1.9448574e-38
-0.58807677 -0.21774735 1.8130001 1.898687e-38
-0.58171916 -0.21774735 1.8130001 1.9447845e-38
-0.57695097 -0.21774735 1.8130001 1.8988321e-38
-0.57218277 -0.21774735 1.8130001 1.8987603e-38
-0.56741458 -0.21774735 1.8130001 1.9079437e-38
-0.56264639 -0.21774735 1.8130001 1.9079065e-38
-0.55787826 -0.21774735 1.8130001 1.9080886e-38
-0.55311 -0.21774735 1.8130001 1.9265264e-38
-0.54834187 -0.21774735 1.8130001 1.9357447e-38
-0.55311 -0.21297917 1.8130001 1.9264548e-38
-0.54834187 -0.21297915 1.8130001 1.9356738e-38
-0.29721716 -0.05721828 1.8130001 2.2581793e-38
-0.32264751 -0.042913709 1.8130001 2.2305565e-38
-0.3274157 -0.039734915 1.8130001 2.1937149e-38
-0.32264751 -0.039734915 1.8130001 2.2213013e-38
-0.31787932 -0.039734915 1.8130001 2.2213376e-38
-1.0052447 -0.69679922 1.8230001 1.4476178e-38
-1.0020484 -0.69679922 1.8230001 1.512262e-38
-1.0052447 -0.69200474 1.8230001 1.4570892e-38
-1.0020484 -0.69200474 1.8230001 1.5124052e-38
-1.0052447 -0.6872102 1.8230001 1.4571245e-38
-1.0020484 -0.6872102 1.8230001 1.4755636e-38
-1.0052447 -0.68241572 1.8230001 1.4570892e-38
-1.0020484 -0.68241572 1.8230001 1.50315e-38
-0.99885207 -0.68241572 1.8230001 1.4939305e-38
-1.0052447 -0.67921942 1.8230001 1.4938957e-38
-1.0020484 -0.67921942 1.8230001 1.50315e-38
-0.99672121 -0.67815399 1.8230002 1.4939306e-38
-0.99245942 -0.67602307 1.8230001 1.4847112e-38
-0.98766494 -0.67602307 1.8230001 1.5031147e-38
-0.98287046 -0.67602307 1.8230001 1.5306648e-38
-0.6429944 -0.27222049 1.8230002 1.4562229e-38
-0.27648225 -0.078310005 1.8230001 2.248997e-38
-0.20296673 -0.071917348 1.8230001 2.3411191e-38
-0.19817226 -0.071917348 1.8230001 2.3411908e-38
-0.20296673 -0.068721026 1.8230001 2.3411191e-38
-0.19817226 -0.068721026 1.8230001 2.304241e-38
-1.010759 -0.67812443 1.8330001 1.4570176e-38
-1.0075451 -0.67812443 1.8330001 1.512297e-38
-1.00326 -0.67758882 1.8330001 1.5030779e-38
-1.010759 -0.67169672 1.8330001 1.4662726e-38
-1.0075451 -0.67169672 1.8330001 1.5399207e-38
-1.0027243 -0.67169672 1.8330001 1.5215175e-38
-0.99790353 -0.67169672 1.8330001 1.5031502e-38
-0.99308276 -0.67169672 1.8330001 1.521589e-38
-0.98826194 -0.67169672 1.8330001 1.5308087e-38
-0.2040801 -0.10123659 1.8330001 2.3319361e-38
-0.2040801 -0.098022729 1.8330001 2.3134971e-38
-0.19283161 -0.098022729 1.8330001 2.3319355e-38
-0.18801081 -0.098022729 1.8330001 2.341191e-38
-0.18319002 -0.098022729 1.8330001 2.3411917e-38
-0.19122466 -0.094808869 1.8330001 2.341191e-38
-0.18801081 -0.094808869 1.8330001 2.3504105e-38
-0.18319002 -0.093201935 1.8330001 2.3411196e-38
-0.17676231 -0.093201935 1.8330001 2.3318636e-38
-0.1719415 -0.093201935 1.8330001 2.3411554e-38
0.80667889 -0.091595009 1.8330001 1.8338296e-38
0.81149966 -0.091595009 1.8330001 1.8062782e-38
-0.20729397 -0.085167289 1.8330001 2.3503384e-38
-0.2040801 -0.085167289 1.8330001 2.3503384e-38
0.80667889 -0.086774215 1.8330001 1.843085e-38
0.81149966 -0.088381149 1.8330001 1.8155336e-38
-0.2040801 -0.081953429 1.8330001 2.3411907e-38
-0.2040801 -0.078739569 1.8330001 2.341191e-38
-1.0081947 -0.67051411 1.8430001 1.4755995e-38
-1.0162731 -0.6672827 1.8430001 1.4846756e-38
-1.0130419 -0.6672827 1.8430001 1.475456e-38
-1.0081947 -0.6672827 1.8430001 1.4939303e-38
-1.0017319 -0.6672827 1.8430001 1.5032215e-38
-0.99688482 -0.6672827 1.8430001 1.4940023e-38
0.11794586 -0.21165626 1.8430001 2.3506968e-38
0.12279294 -0.21165626 1.8430001 2.350733e-38
0.12764004 -0.21165626 1.8430001 2.3505892e-38
0.13248712 -0.21327195 1.8430001 2.3506245e-38
0.11794586 -0.20842487 1.8430001 2.3506604e-38
0.12279294 -0.20680918 1.8430001 2.350805e-38
0.12764004 -0.20680916 1.8430001 2.3507694e-38
0.13248712 -0.20680916 1.8430001 2.3508043e-38
0.13733421 -0.20680916 1.8430001 2.3508755e-38
-1.0152895 -0.66765445 1.853 1.4571967e-38
-1.0120406 -0.66765445 1.853 1.4939307e-38
-1.0217874 -0.66440552 1.853 1.4203187e-38
-1.0163726 -0.66332257 1.853 1.4570885e-38
-1.0120406 -0.66440552 1.853 1.4755289e-38
-1.0071672 -0.66440552 1.853 1.4570893e-38
-0.91294837 -0.62216944 1.853 1.4386837e-38
-0.33301499 -0.17056865 1.853 2.2213016e-38
-0.33301499 -0.16731972 1.853 2.258072e-38
-0.30215019 -0.16731972 1.853 2.258179e-38
-0.29727679 -0.16731972 1.853 2.2489958e-38
0.8333497 -0.15107509 1.853 1.8430125e-38
0.83659863 -0.15107509 1.853 1.8430125e-38
0.81223166 -0.14782616 1.853 1.8615236e-38
0.81710505 -0.14782616 1.853 1.8615238e-38
0.82360291 -0.14782616 1.853 1.833793e-38
0.82685184 -0.14782616 1.853 1.8522677e-38
0.8333497 -0.14782616 1.853 1.8430125e-38
0.83659863 -0.14782616 1.853 1.8430125e-38
0.80735826 -0.14295277 1.853 1.8523394e-38
0.81223166 -0.14295277 1.853 1.8523399e-38
0.81710505 -0.14295277 1.853 1.861524e-38
0.82197845 -0.14295277 1.853 1.8522687e-38
0.82685184 -0.14295277 1.853 1.8430127e-38
0.83172524 -0.14295277 1.853 1.8430486e-38
0.83659863 -0.14295277 1.853 1.8430486e-38
-1.0175023 -0.66309136 1.863 1.4571245e-38
-1.0131471 -0.66363579 1.8630002 1.4387213e-38
-0.92277497 -0.61899418 1.863 1.4571228e-38
-0.91787523 -0.61899418 1.863 1.4753462e-38
-0.90807587 -0.61899418 1.863 1.4661622e-38
-0.90317619 -0.61899418 1.863 1.456943e-38
-1.00117 -0.27928233 1.863 1.1437669e-38
-0.99790353 -0.27928233 1.863 1.1438022e-38
0.46547055 -0.21721959 1.863 2.3130275e-38
0.65492523 -0.21068667 1.863 2.1010855e-38
0.653292 -0.20742022 1.863 2.1011223e-38
0.65819168 -0.20742022 1.863 2.1103056e-38
0.80681562 -0.20742022 1.863 1.8798888e-38
0.81334853 -0.20742022 1.863 1.8891084e-38
0.60756159 -0.20088729 1.863 1.9997794e-38
0.61246127 -0.20088729 1.863 2.027474e-38
0.61572772 -0.20088729 1.863 2.0272939e-38
0.653292 -0.20252052 1.863 2.0089268e-38
0.65819168 -0.20252052 1.863 2.0181821e-38
0.79211652 -0.20252052 1.863 1.8430109e-38
0.79538298 -0.20252052 1.863 1.8522304e-38
0.80191594 -0.20252052 1.863 1.8338632e-38
0.80681562 -0.20252052 1.863 1.8246077e-38
0.81334853 -0.20252052 1.863 1.8338626e-38
0.61246127 -0.19762082 1.863 1.4741927e-38
0.61572772 -0.19762082 1.863 1.4926322e-38
0.65492523 -0.19762082 1.863 1.4926319e-38
0.80681562 -0.19762082 1.863 1.3821431e-38
0.8117153 -0.19762082 1.863 1.3729946e-38
0.77741748 -0.17802207 1.863 1.8800703e-38
0.78231716 -0.17802207 1.863 1.8893255e-38
-0.56813085 -0.39900517 1.8730001 1.963661e-38
0.61903274 -0.23152153 1.8730001 2.1746978e-38
0.62231672 -0.23152153 1.8730001 2.1470391e-38
0.62724274 -0.23152153 1.8730001 2.1471129e-38
0.63216871 -0.23152153 1.8730001 2.1470764e-38
0.63545269 -0.23152153 1.8730001 2.1470764e-38
0.60261279 -0.22823754 1.8730001 2.1654426e-38
0.60753876 -0.22823754 1.8730001 2.110305e-38
0.61246473 -0.22823754 1.8730001 2.1103422e-38
0.61739075 -0.22823754 1.8730001 2.1379286e-38
0.62231672 -0.22823754 1.8730001 2.1286365e-38
0.62724274 -0.22823754 1.8730001 2.1194896e-38
0.63216871 -0.22823754 1.8730001 2.1011223e-38
0.63709474 -0.22823754 1.8730001 2.1102696e-38
0.66172463 -0.22823754 1.8730001 2.0734641e-38
0.66500866 -0.22823754 1.8730001 2.0825747e-38
0.63216871 -0.22331154 1.8730001 2.1286731e-38
0.63709474 -0.22331154 1.8730001 2.1194893e-38
0.6420207 -0.22331154 1.8730001 2.1194533e-38
0.64694667 -0.22331154 1.8730001 2.1010858e-38
0.65187269 -0.22331154 1.8730001 2.0919023e-38
0.65679866 -0.22331154 1.8730001 2.0919025e-38
0.66172463 -0.22331154 1.8730001 2.0734997e-38
0.66610336 -0.22276422 1.8730001 2.0642439e-38
0.70770055 -0.21510155 1.8730001 1.9997794e-38
0.71207923 -0.21619622 1.8730001 2.0089263e-38
0.71755254 -0.21510155 1.8730001 1.9997426e-38
0.72247851 -0.21510155 1.8730001 1.9813399e-38
0.80293638 -0.21510155 1.8730001 1.8799607e-38
0.80622035 -0.21510155 1.8730001 1.8707412e-38
0.81771433 -0.21510155 1.8730001 1.8430826e-38
0.71755254 -0.21181756 1.8730001 1.9905586e-38
0.72247851 -0.21181756 1.8730001 1.98134e-38
0.78980041 -0.21181756 1.8730001 1.9443526e-38
0.79308438 -0.21181756 1.8730001 1.9443526e-38
0.79801035 -0.21181756 1.8730001 1.9258067e-38
0.80293638 -0.21181756 1.8730001 1.9074396e-38
0.80786234 -0.21181756 1.8730001 1.8890724e-38
0.81278837 -0.21181756 1.8730001 1.8706693e-38
0.81771433 -0.21181756 1.8730001 1.870669e-38
0.8226403 -0.21181756 1.8730001 1.8614497e-38
0.75696045 -0.20689157 1.8730001 1.9352422e-38
0.78980041 -0.20689157 1.8730001 1.8982922e-38
0.79308438 -0.20689157 1.8730001 1.9075478e-38
0.79801035 -0.20853357 1.8730001 1.9165872e-38
0.80293638 -0.20689157 1.8730001 1.9167308e-38
0.80622035 -0.20853357 1.8730001 1.9259143e-38
0.8226403 -0.20689157 1.8730001 1.8430472e-38
0.82756633 -0.20524958 1.8730001 1.8430113e-38
0.84562826 -0.20524958 1.8730001 1.8062765e-38
0.85712224 -0.20524958 1.8730001 1.8244285e-38
0.78815842 -0.20196559 1.8730001 1.8153882e-38
0.79308438 -0.20196559 1.8730001 1.7968772e-38
0.80293638 -0.20196559 1.8730001 1.7878021e-38
0.8226403 -0.20196559 1.8730001 1.7785475e-38
0.82756633 -0.20196559 1.8730001 1.7969143e-38
0.83577627 -0.20196559 1.8730001 1.769363e-38
0.84562826 -0.20196559 1.8730001 1.7694711e-38
0.85712224 -0.20196559 1.8730001 1.7691111e-38
0.8226403 -0.19868159 1.8730001 1.391398e-38
0.82756633 -0.19868159 1.8730001 1.4005816e-38
0.83249229 -0.1970396 1.8730001 1.3269688e-38
0.83741832 -0.1970396 1.8730001 1.317713e-38
0.84727025 -0.1970396 1.8730001 1.3085657e-38
0.85219628 -0.1970396 1.8730001 1.3177493e-38
0.85712224 -0.1970396 1.8730001 1.317677e-38
0.63884538 -0.28558207 1.8830001 1.7602866e-38
0.64214694 -0.28558207 1.8830001 1.7509967e-38
0.64544845 -0.28558207 1.8830001 1.7509967e-38
0.63884538 -0.28228053 1.8830001 1.8336478e-38
0.64214694 -0.28228053 1.8830001 1.8245014e-38
0.64544845 -0.28228053 1.8830001 1.8245014e-38
0.82373089 -0.23275763 1.8830001 1.9443176e-38
0.82703245 -0.23275763 1.8830001 1.8891087e-38
0.8319847 -0.23275763 1.8830001 1.9074754e-38
0.80722326 -0.22780535 1.8830001 1.8982922e-38
0.81217551 -0.22780535 1.8830001 1.9074396e-38
0.81712782 -0.22780535 1.8830001 1.8981839e-38
0.82208014 -0.22780535 1.8830001 1.8707054e-38
0.82703245 -0.22780535 1.8830001 1.8614857e-38
0.8319847 -0.22780533 1.8830001 1.8890366e-38
0.83693701 -0.22615458 1.8830001 1.8613069e-38
0.84023851 -0.22615458 1.8830001 1.8521228e-38
0.92772901 -0.22615458 1.8830001 1.7232651e-38
0.93268126 -0.22615458 1.8830001 1.7232651e-38
0.92772901 -0.22285305 1.8830001 1.7232651e-38
0.93268126 -0.22285305 1.8830001 1.7049695e-38
0.92772901 -0.21790075 1.8830001 1.7141173e-38
0.93268126 -0.21790075 1.8830001 1.6957499e-38
0.92772901 -0.21294847 1.8830001 1.6956788e-38
0.93268126 -0.21294847 1.8830001 1.704826e-38
-0.56951946 -0.44830981 1.8940001 1.9085949e-38
-0.51638645 -0.31215644 1.8940001 1.6313927e-38
-0.51306564 -0.31381685 1.8940001 1.5945503e-38
-0.51638645 -0.30717522 1.8940001 1.6221729e-38
-0.59608597 -0.29057115 1.8940001 1.9820981e-38
-0.51749343 -0.29278505 1.8940001 1.5851874e-38
-0.51306564 -0.29057115 1.8940001 1.5115025e-38
0.65253979 -0.28725034 1.8940001 1.73245e-38
-0.29057115 -0.28060871 1.8940001 1.9629371e-38
-0.28725034 -0.28392953 1.8940001 1.9629718e-38
0.65253979 -0.28392953 1.8940001 1.79677e-38
0.65752101 -0.28226912 1.8940001 1.8059894e-38
0.66250223 -0.28226912 1.8940001 1.8152094e-38
0.66748345 -0.28226912 1.8940001 1.8151728e-38
0.67246467 -0.28226912 1.8940001 1.8060606e-38
0.67744589 -0.28060871 1.8940001 1.8060606e-38
0.72227687 -0.28060871 1.8940001 1.7324124e-38
0.93812978 -0.28392953 1.8940001 1.4559344e-38
0.67246467 -0.2772879 1.8940001 1.7876572e-38
0.67744589 -0.2772879 1.8940001 1.7784018e-38
0.84514701 -0.26234424 1.8940001 1.3267519e-38
0.8418262 -0.25736302 1.8940001 9.5829351e-39
0.84514701 -0.25736302 1.8940001 9.6758398e-39
-0.50909787 -0.34218052 1.904 1.5576726e-38
-0.51243621 -0.33550385 1.904 1.6037704e-38
-0.50798512 -0.33661664 1.904 1.5300496e-38
-0.51243621 -0.33216548 1.904 1.5945506e-38
-0.50742871 -0.33216548 1.904 1.5023911e-38
-0.51243621 -0.32715797 1.904 1.557672e-38
-0.50742871 -0.32715797 1.904 1.4839161e-38
-0.51243621 -0.32215044 1.904 1.5484881e-38
-0.50742871 -0.32215044 1.904 1.4654778e-38
-0.51243621 -0.31714293 1.904 1.5299773e-38
-0.50909787 -0.31714293 1.904 1.4654404e-38
-0.51577455 -0.3121354 1.904 1.6220295e-38
-0.51243621 -0.3121354 1.904 1.5206501e-38
-0.51688737 -0.30657151 1.904 1.6036262e-38
-0.51744372 -0.30212036 1.904 1.5851868e-38
-0.51688737 -0.29766926 1.904 1.5667126e-38
-0.51243621 -0.29210532 1.904 1.4930262e-38
-0.50909787 -0.29210532 1.904 1.4008307e-38
0.93807542 -0.28542864 1.904 1.446823e-38
0.93974459 -0.28209031 1.904 1.4560782e-38
0.94308293 -0.28209031 1.904 1.4743725e-38
-0.94685256 -0.60269517 1.9150001 1.1802487e-38
-0.94181615 -0.60269517 1.9150001 1.1802487e-38
-1.0173628 -0.59933752 1.9150001 1.1988672e-38
-1.0056112 -0.59597993 1.9150001 1.1895051e-38
-1.0022535 -0.59765875 1.9150001 1.1895054e-38
-0.99721706 -0.59765875 1.9150001 1.1987612e-38
-0.99218065 -0.59765875 1.9150001 1.1712455e-38
-0.98714417 -0.59765875 1.9150001 1.208052e-38
-0.98210776 -0.59765875 1.9150001 1.1803215e-38
-0.97707129 -0.59765875 1.9150001 1.1711028e-38
-0.97203487 -0.59765875 1.9150001 1.2265623e-38
-0.9669984 -0.59765875 1.9150001 1.1988319e-38
-0.96196193 -0.59765875 1.9150001 1.1987961e-38
-0.95692551 -0.59765875 1.9150001 1.1802865e-38
-0.95188904 -0.59765875 1.9150001 1.2172347e-38
-0.94685256 -0.59765875 1.9150001 1.2264184e-38
-0.94181615 -0.59765875 1.9150001 1.2264543e-38
-0.51539671 -0.37437612 1.9150001 1.6865667e-38
-0.51539671 -0.35758793 1.9150001 1.6129897e-38
-0.51203907 -0.35423031 1.9150001 1.5945506e-38
-0.50868148 -0.3424786 1.9150001 1.529906e-38
-0.51539671 -0.31058109 1.9150001 1.5298361e-38
-0.51203907 -0.31225991 1.9150001 1.4745176e-38
-0.51539671 -0.30722344 1.9150001 1.5297968e-38
-0.51203907 -0.30722344 1.9150001 1.4929187e-38
-0.51539671 -0.302187 1.9150001 1.520649e-38
-0.51203907 -0.302187 1.9150001 1.4561121e-38
-0.51539671 -0.29715055 1.9150001 1.4654416e-38
0.32736924 -0.26189542 1.9150001 1.2899074e-38
0.33240569 -0.26189542 1.9150001 1.2992362e-38
0.33240569 -0.25685894 1.9150001 1.2344466e-38
-0.82734537 -0.60278022 1.9260001 1.3183978e-38
-0.82227999 -0.60278022 1.9260001 1.309071e-38
-0.81721461 -0.60278022 1.9260001 1.3366577e-38
-0.81214923 -0.60278022 1.9260001 1.3366218e-38
-0.80708385 -0.60278022 1.9260001 1.3274739e-38
-0.94216067 -0.59771484 1.9260001 1.2355662e-38
-0.93709528 -0.59771484 1.9260001 1.2721583e-38
-0.93371838 -0.59771484 1.9260001 1.2629386e-38
-0.906703 -0.59771484 1.9260001 1.2538978e-38
-0.90332609 -0.59771484 1.9260001 1.2999589e-38
-0.89826071 -0.59771484 1.9260001 1.2999231e-38
-0.89319533 -0.59771484 1.9260001 1.2906678e-38
-0.88812995 -0.59771484 1.9260001 1.2999585e-38
-0.88306457 -0.59771484 1.9260001 1.3001026e-38
-0.87799919 -0.59771484 1.9260001 1.2724082e-38
-0.8729338 -0.59771484 1.9260001 1.2723365e-38
-0.8695569 -0.59771484 1.9260001 1.3183259e-38
-0.86280304 -0.59771484 1.9260001 1.3183622e-38
-0.85773766 -0.59771484 1.9260001 1.2907395e-38
-0.85267228 -0.59771484 1.9260001 1.2907397e-38
-0.8476069 -0.59940332 1.9260001 1.3183266e-38
-0.82734537 -0.59771484 1.9260001 1.3091424e-38
-0.82227999 -0.59771484 1.9260001 1.3182903e-38
-0.81721467 -0.59771484 1.9260001 1.3275097e-38
-0.81214923 -0.59771484 1.9260001 1.3367293e-38
-0.80708385 -0.59771484 1.9260001 1.327474e-38
-0.80201852 -0.59771484 1.9260001 1.3552042e-38
-0.51160336 -0.40691885 1.9260001 1.6314645e-38
-0.51160336 -0.40185347 1.9260001 1.6038421e-38
-0.51160336 -0.39678809 1.9260001 1.5762193e-38
-0.51272905 -0.39115995 1.9260001 1.6221741e-38
-0.51498032 -0.38665733 1.9260001 1.6682355e-38
-0.51835722 -0.37314966 1.9260001 1.65898e-38
-0.51835722 -0.36808428 1.9260001 1.6589795e-38
-0.51835722 -0.3630189 1.9260001 1.6497237e-38
-0.51498032 -0.3630189 1.9260001 1.6497237e-38
-0.51498032 -0.35964197 1.9260001 1.6037701e-38
-0.51160336 -0.35288814 1.9260001 1.5208669e-38
-0.51160336 -0.34951121 1.9260001 1.529978e-38
-0.51160336 -0.32249585 1.9260001 1.493102e-38
-0.51498032 -0.29885742 1.9260001 1.4285634e-38
0.34275737 -0.28534973 1.9260001 2.0641337e-38
-0.8027882 -0.59742379 1.9360001 1.3368012e-38
-0.79769653 -0.59742379 1.9360001 1.3827547e-38
-0.79260486 -0.59742379 1.9360001 1.3275813e-38
-0.78751314 -0.59742379 1.9360001 1.3736071e-38
-0.78242147 -0.59742379 1.9360001 1.3643515e-38
-0.7773298 -0.59572655 1.9360001 1.3458407e-38
-0.77223814 -0.59572655 1.9360001 1.3643878e-38
-0.51765412 -0.42770112 1.9360001 1.6865308e-38
-0.5142597 -0.4260039 1.9360001 1.6590506e-38
-0.5142597 -0.42260945 1.9360001 1.6590872e-38
-0.51086521 -0.40224272 1.9360001 1.5485623e-38
-0.51086521 -0.39715105 1.9360001 1.5485615e-38
-0.51086521 -0.39205936 1.9360001 1.5761118e-38
-0.51765412 -0.38527045 1.9360001 1.6866746e-38
-0.51765412 -0.38187599 1.9360001 1.6958213e-38
-0.51765412 -0.37678432 1.9360001 1.658944e-38
-0.51765412 -0.37169263 1.9360001 1.6773471e-38
-0.51765412 -0.36829817 1.9360001 1.6497953e-38
-0.5142597 -0.36150926 1.9360001 1.5116115e-38
-0.5142597 -0.35811484 1.9360001 1.5115755e-38
-0.60252512 -0.60252512 1.9470001 1.6314295e-38
-0.59740448 -0.60252512 1.9470001 1.6221746e-38
-0.5922839 -0.60252512 1.9470001 1.6314664e-38
-0.58887017 -0.60252512 1.9470001 1.5853685e-38
-0.50694036 -0.46256176 1.9470001 1.5023907e-38
-0.512061 -0.45232055 1.9470001 1.6129918e-38
-0.51718163 -0.44549307 1.9470001 1.7234819e-38
-0.51262993 -0.4477689 1.9470003 1.6497251e-38
-0.51718163 -0.44207934 1.9470001 1.7050061e-38
-0.512061 -0.44207934 1.9470001 1.6128826e-38
-0.51718163 -0.43695873 1.9470001 1.686603e-38
-0.51262993 -0.43752772 1.9470003 1.6221382e-38
-0.51718163 -0.4318381 1.9470001 1.7050408e-38
-0.51376784 -0.4318381 1.9470001 1.6773821e-38
-0.51376784 -0.41818315 1.9470001 1.576149e-38
-0.51376784 -0.41306254 1.9470001 1.5853304e-38
-0.51376784 -0.40794194 1.9470001 1.493206e-38
-0.5103541 -0.40111443 1.9470001 1.5762909e-38
-0.5103541 -0.3977007 1.9470001 1.5855108e-38
-0.51718163 -0.39087322 1.9470001 1.5760771e-38
-0.51376784 -0.39087322 1.9470001 1.5760771e-38
-0.51718163 -0.38745949 1.9470001 1.5944784e-38
-0.51718163 -0.38404575 1.9470001 1.5945137e-38
-0.51718163 -0.36697704 1.9470001 1.5299414e-38
-0.3967171 -0.60623866 1.9590001 1.8338276e-38
-0.37267363 -0.60280389 1.9590001 1.907727e-38
-0.9926514 -0.54441261 1.9590001 1.3467067e-38
-0.51349962 -0.49976048 1.9590001 1.5945503e-38
-0.51349962 -0.48773876 1.9590001 1.5760402e-38
-0.51178223 -0.48258659 1.9590001 1.576149e-38
-0.51120979 -0.4780069 1.9590001 1.5577816e-38
-0.50663006 -0.47571704 1.9590001 1.5485623e-38
-0.51006484 -0.47228226 1.9590001 1.5945152e-38
-0.50663006 -0.47228226 1.9590001 1.5485626e-38
-0.51006484 -0.46884745 1.9590001 1.5669291e-38
-0.50663006 -0.46713006 1.9590001 1.5670738e-38
-0.51006484 -0.45510834 1.9590001 1.5023216e-38
-0.51006484 -0.45167357 1.9590001 1.5482732e-38
-0.51349962 -0.44823879 1.9590001 1.585333e-38
-0.51693439 -0.43106487 1.9590001 1.5945137e-38
-0.51693439 -0.4276301 1.9590001 1.5761472e-38
-0.51349962 -0.41732576 1.9590001 1.5578175e-38
-0.51349962 -0.4121736 1.9590001 1.5485974e-38
-0.51349962 -0.40702143 1.9590001 1.6132052e-38
-0.52036917 -0.38297796 1.9590001 1.6220645e-38
-0.52036917 -0.3778258 1.9590001 1.5945148e-38
-0.52036917 -0.37267363 1.9590001 1.5669276e-38
0.074262433 -0.66145378 1.9700001 2.2303761e-38
0.0777165 -0.66145378 1.9700001 2.2488158e-38
0.081170566 -0.66145378 1.9700001 2.2395963e-38
-0.98786306 -0.54228842 1.9700001 1.4110984e-38
-0.98268199 -0.54228842 1.9700001 1.4202458e-38
-0.5854643 -0.53365332 1.9700001 1.8070366e-38
-0.51638299 -0.52674514 1.9700001 1.4564746e-38
-0.51638299 -0.52329111 1.9700001 1.4564746e-38
-0.51638299 -0.51983702 1.9700001 1.4748424e-38
-0.51638299 -0.50947481 1.9700001 1.5944799e-38
-0.5129289 -0.49565858 1.9700001 1.5667474e-38
-0.5129289 -0.49220449 1.9700001 1.5576373e-38
-0.5129289 -0.48875043 1.9700001 1.5576007e-38
-0.50947481 -0.48529637 1.9700001 1.5486329e-38
-0.50947481 -0.48184231 1.9700001 1.5394502e-38
-0.5129289 -0.40757984 1.9700001 1.5578518e-38
-0.5129289 -0.40239877 1.9700001 1.5578522e-38
-0.51638299 -0.39894471 1.9700001 1.5762912e-38
0.062520355 -0.65820044 1.9810001 2.2397043e-38
-0.58873338 -0.54705316 1.9810001 1.5395597e-38
-0.51926631 -0.54705316 1.9810001 1.3823564e-38
-0.58873338 -0.54184312 1.9810001 1.6040968e-38
-0.51926631 -0.54010642 1.9810001 1.4376032e-38
-0.51926631 -0.53663307 1.9810001 1.5023925e-38
-0.51926631 -0.53315973 1.9810001 1.5023922e-38
-0.51579297 -0.52794969 1.9810001 1.4472549e-38
-0.51579297 -0.52273965 1.9810001 1.4472196e-38
-0.51579297 -0.51579297 1.9810001 1.5207963e-38
-0.51579297 -0.51231962 1.9810001 1.5023203e-38
-0.51579297 -0.50710958 1.9810001 1.5116113e-38
-0.51231962 -0.49321616 1.9810001 1.5394132e-38
-0.51717019 -0.54687256 1.9930001 1.3455517e-38
-0.51717019 -0.54337817 1.9930001 1.4099798e-38
-0.51891738 -0.5381366 1.9930001 1.4839532e-38
-0.51891738 -0.41758001 1.9930001 1.5578522e-38
0.70835984 -0.62750483 2.0050001 1.7324477e-38
0.70484436 -0.62223172 2.0050001 1.7508155e-38
0.70835984 -0.62223172 2.0050001 1.7415961e-38
0.49216068 -0.61695856 2.0050001 1.9719404e-38
0.49743381 -0.61695856 2.0050001 1.9535018e-38
0.502707 -0.61695856 2.0050001 1.9535372e-38
0.52204186 -0.61695856 2.0050001 1.9625771e-38
0.52555728 -0.61695856 2.0050001 1.944174e-38
0.66969007 -0.61695856 2.0050001 1.7968775e-38
0.67320549 -0.61695856 2.0050001 1.7968775e-38
0.67672092 -0.61695856 2.0050001 1.7785457e-38
0.69254041 -0.61695856 2.0050001 1.7692908e-38
0.70484436 -0.61695856 2.0050001 1.7599992e-38
0.70835984 -0.61695856 2.0050001 1.7599992e-38
0.51676869 -0.61344314 2.0050001 1.9535374e-38
0.52204186 -0.61344314 2.0050001 1.9720122e-38
0.52555728 -0.61344314 2.0050001 1.9535372e-38
-0.59938139 -0.54313445 2.0050001 1.8069637e-38
-0.51852643 -0.54313445 2.0050001 1.4470398e-38
-0.51852643 -0.53786135 2.0050001 1.4470744e-38
-0.51852643 -0.53258812 2.0050001 1.4103764e-38
-0.51852643 -0.5290727 2.0050001 1.4195603e-38
0.68279004 -0.62269986 2.0160003 1.7692898e-38
0.68750304 -0.62211072 2.016 1.7508517e-38
0.69221604 -0.62269986 2.0160003 1.7600712e-38
0.70164192 -0.62211072 2.016 1.7600361e-38
0.70517665 -0.62211072 2.016 1.7692555e-38
0.71754813 -0.62211072 2.016 1.7508512e-38
0.72285026 -0.62211072 2.016 1.7508514e-38
0.72815228 -0.62211066 2.016 1.7508511e-38
0.73345441 -0.62211072 2.016 1.7416313e-38
0.73698914 -0.62211072 2.016 1.7141173e-38
0.74052382 -0.62034333 2.016 1.6957141e-38
0.72285026 -0.61680865 2.016 1.7599992e-38
0.72815228 -0.61680865 2.016 1.7507799e-38
0.73345441 -0.61680865 2.016 1.7508162e-38
0.73698914 -0.61680865 2.016 1.7233007e-38
0.74229121 -0.61680865 2.016 1.7233005e-38
1.0027243 -0.62759161 2.0280001 1.4282761e-38
0.18312164 -0.60270131 2.0280001 1.9348447e-38
0.082375109 -0.59677505 2.0280004 1.9259141e-38
-0.036144968 -0.591636 2.1700001 1.9906678e-38
-0.032340232 -0.591636 2.1700001 1.9630091e-38
-0.032548878 -0.58779448 2.184 2.1014473e-38
-0.032966174 -0.57787764 2.2120001 2.17542e-38
-0.03317482 -0.57568067 2.2260001 2.2400647e-38
-0.027970929 -0.57698166 2.2260003 2.2400291e-38
-0.02146606 -0.57568067 2.2260001 2.2492477e-38
-0.01756314 -0.57568067 2.2260001 2.2492477e-38
-0.67715663 -0.49371937 2.2260001 1.9362171e-38
0.40939632 -0.58343917 2.256 1.9263479e-38
0.38961872 -0.57750595 2.256 1.9172364e-38
0.39357424 -0.57750595 2.256 1.9172364e-38
-0.033621918 -0.56366158 2.256 2.2491768e-38
-0.0296664 -0.56366158 2.256 2.295238e-38
0.41211838 -0.57537299 2.2710001 1.9079458e-38
0.41610017 -0.57537299 2.2710001 1.8987262e-38
0.42207292 -0.57537299 2.2710001 1.8987978e-38
-0.033845469 -0.56342751 2.2710001 2.2400294e-38
-0.033845469 -0.55944568 2.2710001 2.2400294e-38
0.24249126 -0.56314087 2.286 2.0001763e-38
0.24649937 -0.56314087 2.286 2.0093959e-38
0.25251156 -0.56314087 2.286 2.0186154e-38
-0.032064959 -0.55712867 2.286 2.2492121e-38
0.21987589 -0.55876714 2.3010001 2.0186154e-38
0.25618568 -0.55876714 2.3010001 2.0186521e-38
0.26223731 -0.55876714 2.3010001 2.0002482e-38
0.26828894 -0.55876714 2.3010001 2.0186521e-38
0.27232334 -0.55876714 2.3010001 2.0094326e-38
-0.034292571 -0.55069834 2.3010001 2.2768708e-38
0.4164035 -0.56265253 2.3170002 1.9355687e-38
0.40218484 -0.55859005 2.3170002 1.9264924e-38
0.40827855 -0.55859005 2.3170002 1.926422e-38
0.41234103 -0.55859005 2.3170002 1.926422e-38
0.4164035 -0.55859005 2.3170002 1.9263492e-38
0.42046598 -0.55859005 2.3170002 1.9079461e-38
-0.01828113 -0.54640263 2.3170002 2.2767985e-38
-0.014218656 -0.54640263 2.3170002 2.3137491e-38
-0.21734232 -0.53827769 2.3170002 2.157161e-38
-0.20921737 -0.53827769 2.3170002 2.2585393e-38
0.40291688 -0.55835688 2.3330002 1.9540785e-38
0.41927898 -0.55835688 2.3330002 1.9172375e-38
0.079765268 -0.54199475 2.3330002 2.2399572e-38
-0.21884318 -0.53381371 2.3330002 2.2032588e-38
-0.21270739 -0.53381371 2.3330002 2.1940036e-38
-0.20657159 -0.53381371 2.3330002 2.212443e-38
-0.20248108 -0.53381371 2.3330002 2.2123711e-38
-0.19839054 -0.53381371 2.3330002 2.193932e-38
-0.19225475 -0.53381371 2.3330002 2.2400291e-38
-0.18611896 -0.53381371 2.3330002 2.2674715e-38
-0.18202844 -0.53381371 2.3330002 2.2674715e-38
-1.2537464 -0.45609373 2.3330002 1.7524032e-38
-1.2496558 -0.45609373 2.3330002 1.7800259e-38
-1.1719359 -0.45609373 2.3330002 1.7890656e-38
-1.1678454 -0.45609373 2.3330002 1.7799187e-38
-1.1637548 -0.45609373 2.3330002 1.7706991e-38
0.080312312 -0.54159325 2.3490002 2.2582875e-38
-0.030889349 -0.53747469 2.3490002 2.2399572e-38
0.076193728 -0.53747469 2.3490002 2.2582869e-38
0.0823716 -0.53747469 2.3490002 2.2306645e-38
-0.035007931 -0.53335613 2.3490002 2.2582519e-38
-0.030889349 -0.53335613 2.3490002 2.2399572e-38
-0.026770771 -0.53335613 2.3490002 2.2307377e-38
-1.2479298 -0.45098451 2.3490002 1.7523673e-38
0.30063093 -0.54113567 2.365 2.0278707e-38
0.3130708 -0.54113567 2.365 2.0186154e-38
-0.03109975 -0.52869576 2.365 2.258432e-38
0.41834709 -0.5318684 2.398 1.9726605e-38
0.25437185 -0.52766389 2.398 2.0278351e-38
0.2795988 -0.52766389 2.398 2.0278354e-38
-0.73368406 -0.45198303 2.398 1.9269262e-38
-1.2970862 -0.43096057 2.398 1.770771e-38
-1.2928817 -0.43096057 2.398 1.7893174e-38
0.25194085 -0.52717036 2.4150002 2.0370906e-38
0.25617516 -0.52717036 2.4150002 2.0278351e-38
0.26040944 -0.52717036 2.4150002 2.0278351e-38
0.24347225 -0.52293605 2.4150002 2.0556016e-38
0.24770655 -0.52293605 2.4150002 2.0923721e-38
0.25194085 -0.52293605 2.4150002 2.0554937e-38
0.25617516 -0.52293605 2.4150002 2.0278351e-38
0.2625266 -0.52293605 2.4150002 2.027871e-38
0.26887804 -0.52293605 2.4150002 2.0370906e-38
0.27311236 -0.52293605 2.4150002 2.0553862e-38
0.27734664 -0.52293605 2.4150002 2.0553862e-38
-1.2575871 -0.42766428 2.4150002 1.7799544e-38
-1.2512356 -0.42766428 2.4150002 1.8075758e-38
-1.2470013 -0.42766428 2.4150002 1.7798812e-38
-1.2385328 -0.42978144 2.4150002 1.7247442e-38
-1.232887 -0.42837 2.4150004 1.807469e-38
0.24945024 -0.52235305 2.4320002 2.0647132e-38
0.25371435 -0.52235305 2.4320002 2.0370906e-38
0.25797844 -0.52235305 2.4320002 2.0278357e-38
0.4285427 -0.52235305 2.4320002 1.9448959e-38
0.43280682 -0.52235305 2.4320002 1.9448959e-38
0.43707094 -0.52235305 2.4320002 1.9448592e-38
0.44133502 -0.52235305 2.4320002 1.9448592e-38
0.4477312 -0.52235305 2.4320002 1.9448592e-38
0.45412737 -0.52235305 2.4320002 1.9264921e-38
0.24945024 -0.51808894 2.4320002 2.046382e-38
0.25371435 -0.51808894 2.4320002 2.0371624e-38
0.25797844 -0.51808894 2.4320002 2.027907e-38
0.26224256 -0.51808894 2.4320002 2.027907e-38
-1.2387229 -0.42427862 2.4320002 1.7890659e-38
-1.2216666 -0.42427862 2.4320002 1.7797742e-38
-1.2174025 -0.42427862 2.4320002 1.8533508e-38
0.44245368 -0.51762784 2.45 1.9449309e-38
0.44889715 -0.51762784 2.45 1.9632631e-38
0.45319283 -0.51762784 2.45 1.9632631e-38
0.45748851 -0.51762784 2.45 1.9540785e-38
0.46178415 -0.51762784 2.45 1.9356394e-38
0.47252333 -0.51762784 2.45 1.9357114e-38
0.25129649 -0.51333219 2.45 2.046382e-38
-1.2673637 -0.40875724 2.467 1.8167601e-38
-1.2608755 -0.40875724 2.467 1.844383e-38
-1.25655 -0.40875724 2.467 1.7890656e-38
-1.2522246 -0.40875724 2.467 1.8075754e-38
-1.2478991 -0.40875724 2.467 1.7891363e-38
-1.2435735 -0.40875724 2.467 1.807612e-38
-1.2392482 -0.40875724 2.467 1.7799893e-38
-1.2608755 -0.40443176 2.467 1.7800256e-38
-1.2722538 -0.40302557 2.4850001 1.7983208e-38
-1.2657182 -0.40302557 2.4850001 1.7798458e-38
