# .PCD v0.7 - Point Cloud Data file format
VERSION 0.7
FIELDS x y z rgba
SIZE 4 4 4 4
TYPE F F F U
COUNT 1 1 1 1
WIDTH 1158
HEIGHT 1
VIEWPOINT 0 0 0 1 0 0 0
POINTS 1158
DATA ascii
-1.1437364 -0.49077132 2.2021763 7509926
-1.1412365 -0.4717074 2.2530706 8232622
-1.0804406 -0.53811592 2.0799508 6850711
-1.072721 -0.52176756 2.12393 7639455
-1.0365211 -0.54138541 2.0738826 7244439
-1.0370497 -0.51217788 2.1515954 7704735
-1.0895547 -0.5014298 2.1770556 7968421
-1.0903529 -0.4792462 2.2360559 8166058
-1.0339624 -0.50086868 2.1818836 7901858
-1.0418485 -0.48236564 2.2306621 8033957
-0.97611791 -0.61458582 1.8826604 5866139
-0.9824357 -0.59845239 1.9252254 4874348
-0.93360013 -0.61554301 1.8826627 4872796
-0.93616736 -0.59952056 1.9251574 5333608
-0.99419731 -0.57393056 1.9897923 6059134
-0.93147671 -0.57555747 1.9892237 6190207
-0.98381776 -0.56054568 2.0260427 6651785
-0.93602484 -0.5607121 2.0284667 6716808
-0.88056719 -0.61577642 1.8852226 5267299
-0.88103479 -0.58808732 1.9588975 5991801
-0.83273286 -0.61623156 1.8868803 5530728
-0.83424968 -0.5921573 1.9508703 6123642
-0.88130319 -0.57426703 1.9956684 6387584
-0.8352536 -0.57870513 1.9866171 6452863
-0.88535112 -0.55770189 2.0395186 6848137
-0.83307046 -0.56019789 2.0360107 6847622
-0.9862932 -0.53889304 2.0835295 7243925
-0.99112147 -0.51833606 2.1379585 7638171
-0.93590987 -0.51713705 2.1444619 7572120
-0.98709428 -0.49519995 2.1997838 7967136
-0.98226225 -0.4765079 2.2498286 8098722
-0.93508518 -0.50018227 2.1896417 7834781
-0.93843067 -0.48515376 2.2294438 8032416
-0.88245076 -0.54168516 2.0823262 7111310
-0.88347751 -0.51928967 2.1418769 7506069
-0.8339954 -0.54063153 2.088037 7045516
-0.8228699 -0.52059454 2.1420391 7373969
-0.88618338 -0.50141621 2.1892903 7834522
-0.82896763 -0.5026468 2.1894467 7637142
-0.84235364 -0.48463812 2.2365794 7900059
-0.78582156 -0.66759324 1.7529792 5002837
-0.7866233 -0.65240479 1.7933599 5266268
-0.7870701 -0.63397622 1.8423862 5595748
-0.74381518 -0.65026873 1.8016133 5595235
-0.73456365 -0.63509893 1.8425472 5924458
-0.68832332 -0.64741248 1.8125447 5989736
-0.68451625 -0.63392717 1.8486682 6121580
-0.63609743 -0.65596622 1.7929089 6055526
-0.63184476 -0.63955015 1.8368604 6252908
-0.5847196 -0.65620399 1.7953577 6187111
-0.58579713 -0.63651115 1.8477116 6450029
-0.53123778 -0.65255433 1.8082803 6384233
-0.53755683 -0.63762963 1.8476282 6581356
-0.47951698 -0.65252858 1.8114514 6646632
-0.48776552 -0.6369409 1.8524481 6777964
-0.43701503 -0.6602962 1.7933248 6777704
-0.43821943 -0.64207774 1.8417466 6909291
-0.78405595 -0.61825573 1.8844118 5859436
-0.78381532 -0.58990139 1.9599003 6386299
-0.73560673 -0.61823219 1.8873807 6056816
-0.73428881 -0.59976727 1.9366099 6320503
-0.78759986 -0.57614261 1.9962965 6584192
-0.73609698 -0.580311 1.9882902 6583677
-0.78731686 -0.56042957 2.0381384 6847621
-0.73567027 -0.56573582 2.0271122 6781057
-0.68938696 -0.61757994 1.8918893 6319473
-0.67927986 -0.60477078 1.926591 6451060
-0.63284588 -0.62000996 1.8888125 6450801
-0.63272339 -0.60220742 1.9362068 6648181
-0.68682784 -0.57934725 1.9938108 6780284
-0.63683593 -0.58109158 1.9921663 6911353
-0.68494129 -0.56411302 2.0344746 6912128
-0.63385201 -0.564812 2.0356784 7108734
-0.78172171 -0.54486042 2.079916 7110278
-0.78347176 -0.52523422 2.1320522 4476240
-0.73373419 -0.53356886 2.1128504 7371905
-0.73274142 -0.51942152 2.1505675 3158312
-0.78082639 -0.50020361 2.1988375 7570835
-0.78250295 -0.48844424 2.2300382 7702421
-0.73767185 -0.50670338 2.1841252 7372941
-0.73356885 -0.4911502 2.2257707 7702162
-0.68503201 -0.54174465 2.0940094 7306118
-0.69296694 -0.52049732 2.15009 6120282
-0.62689972 -0.5373289 2.1092503 7371910
-0.64574337 -0.52289444 2.1465416 7634563
-0.67645037 -0.50703019 2.1869273 4013631
-0.62237525 -0.50458956 2.1966674 5987414
-0.57838178 -0.61910814 1.8944798 6647408
-0.58578742 -0.60186893 1.939923 6779254
-0.52538306 -0.62129688 1.8918328 6778736
-0.53736341 -0.60629022 1.9310592 6910325
-0.58466268 -0.58153665 1.9941113 7042426
-0.53322047 -0.58843666 1.9788303 7107959
-0.53896564 -0.57192761 2.0224297 7239804
-0.58671862 -0.56401139 2.0406368 7240063
-0.47442761 -0.62080216 1.8962063 6975601
-0.48639172 -0.60409719 1.9399542 7107445
-0.42906064 -0.62338763 1.8920451 7106672
-0.43870899 -0.60600966 1.9377235 7304051
-0.48774406 -0.58566546 1.9889345 7239544
-0.43776715 -0.58366847 1.9972479 7436153
-0.48520535 -0.56852335 2.0347159 7502205
-0.43498549 -0.56674802 2.0424538 7699067
-0.58027518 -0.55024755 2.0776598 7502721
-0.59191388 -0.52021408 2.1569049 7831689
-0.52641952 -0.5542419 2.0702581 7568255
-0.54083502 -0.52382815 2.1503491 7962760
-0.58758837 -0.5060913 2.1947567 7962754
-0.57811993 -0.48858407 2.2419255 4012339
-0.53827232 -0.5051735 2.2001576 8028807
-0.53402144 -0.49468544 2.2283301 7567219
-0.48287815 -0.55094367 2.0816491 7764864
-0.47886121 -0.52997971 2.137692 7962499
-0.43537837 -0.55087543 2.0846798 7896191
-0.43624017 -0.53076005 2.1381714 8093570
-0.49031785 -0.51391381 2.1797693 8094085
-0.48570231 -0.49383703 2.2334867 8225156
-0.43342075 -0.51367265 2.1838238 8225157
-0.43520981 -0.48682067 2.2551913 8422537
-1.4143618 -0.33552492 2.5991795 2501935
-1.4319506 -0.31801978 2.6447198 524
-1.3250431 -0.4004893 2.4316144 12575231
-1.25722 -0.44563168 2.3155222 12707583
-1.2404593 -0.43832284 2.3359823 7117228
-1.2929212 -0.41369867 2.3983803 7970745
-1.2898722 -0.39706802 2.4428308 6587532
-1.2400695 -0.4152956 2.3972998 7836831
-1.2261513 -0.39950451 2.4401674 7572886
-1.3621348 -0.37629628 2.4937866 10601452
-1.337342 -0.37072098 2.5101142 5663602
-1.3686329 -0.35580271 2.5479469 4346189
-1.3243119 -0.35625461 2.5494025 4871764
-1.3841503 -0.34379026 2.5789907 4476744
-1.3851273 -0.31989935 2.6425252 132370
-1.3311539 -0.33856285 2.5960839 3619647
-1.3304279 -0.31604642 2.6560619 659469
-1.2751547 -0.38569894 2.4739759 6519421
-1.2712142 -0.3568981 2.5508745 5464159
-1.2289368 -0.35685837 2.5535161 5794155
-1.2840238 -0.34754977 2.5749896 5002581
-1.281415 -0.32025895 2.6477888 4541253
-1.2095449 -0.34266296 2.5924647 5925226
-1.2144494 -0.32256961 2.6456554 4937041
-1.4466805 -0.30015981 2.691376 1547
-1.4094846 -0.29166597 2.7162158 1032
-1.3856634 -0.30550951 2.6807959 1033
-1.3719136 -0.28264657 2.7424774 66570
-1.3392246 -0.30417731 2.6871276 262
-1.3318955 -0.27363876 2.7688549 131844
-1.2850554 -0.28103438 2.7519789 261
-1.2376304 -0.30787322 2.6833837 3949373
-1.2425799 -0.28604743 2.7411828 2369828
-1.2917984 -0.26417384 2.7964542 197642
-1.2286122 -0.26988599 2.7850392 1252119
-1.2404321 -0.25239313 2.830893 131849
-1.1622854 -0.44839329 2.3138659 8363951
-1.174179 -0.4377189 2.3415656 8298156
-1.1328286 -0.45980471 2.2852576 8298159
-1.1278546 -0.43423346 2.3536217 8429228
-1.1847198 -0.4159916 2.3987672 8100005
-1.175112 -0.3985326 2.445816 7901596
-1.1371951 -0.42027232 2.3902233 8362921
-1.1286999 -0.40084422 2.4424469 8230821
-1.085901 -0.46049091 2.2862461 8297643
-1.0837308 -0.4433248 2.3320692 8428460
-1.0298419 -0.46405149 2.2801309 8231080
-1.0330778 -0.44503772 2.3305478 8362665
-1.0827795 -0.42546397 2.3796682 8428459
-1.085042 -0.40714946 2.4282823 8297128
-1.0337148 -0.42680544 2.3790402 8428459
-1.0164247 -0.40726531 2.4320896 8493738
-1.1838729 -0.38328493 2.4858768 7440529
-1.1361854 -0.37949103 2.4988358 7901340
-1.1300334 -0.36364841 2.5413747 7440272
-1.1807511 -0.3508133 2.5724974 6650236
-1.1698939 -0.32882878 2.6316669 5924967
-1.1365795 -0.32958016 2.6316655 6254192
-1.0867994 -0.38169181 2.4959402 8098976
-1.029646 -0.38853532 2.4811523 8362149
-1.0846657 -0.36665022 2.5361059 7835290
-1.0222136 -0.36292478 2.5497684 8031900
-1.1045138 -0.34561548 2.5909057 7307911
-1.085122 -0.33057955 2.6320918 6781051
-1.0290082 -0.34758911 2.5901814 7834519
-1.0147612 -0.32480201 2.651691 7175811
-0.9868167 -0.4599939 2.2935123 8230820
-0.98477691 -0.44621894 2.3303008 8296615
-0.935422 -0.46197343 2.2913263 8229795
-0.93486202 -0.44738337 2.3301957 8361637
-0.97989649 -0.41374615 2.4170301 8559273
-0.93515444 -0.4231872 2.3945835 8362151
-0.88558435 -0.45146492 2.3222871 8229282
-0.83527857 -0.4679065 2.2815402 8031646
-0.83441293 -0.43839788 2.3601382 8294817
-0.88429463 -0.41885751 2.4091587 8427173
-0.87911415 -0.40565577 2.4446104 8492968
-0.83515084 -0.42595586 2.3932123 8361121
-0.98454666 -0.38626623 2.4898975 8427430
-0.93633217 -0.38990241 2.4831104 8493223
-0.98945361 -0.36898336 2.5356066 8230049
-0.93390989 -0.37039062 2.5351925 8492708
-0.98500758 -0.3487978 2.5896034 8097692
-0.98470819 -0.33351585 2.6302989 7834258
-0.93447733 -0.34981591 2.5899241 8229278
-0.93468612 -0.32674685 2.6513169 7898771
-0.87818056 -0.3929103 2.4785919 8492967
-0.83422267 -0.39008605 2.4887464 8689573
-0.83996511 -0.37290305 2.5341399 8689571
-0.88961929 -0.34510869 2.6051447 8360607
-0.88493377 -0.32804817 2.6508377 8097177
-0.83494008 -0.35155481 2.5912662 8492194
-0.83406258 -0.32902563 2.6512873 8294556
-1.1847596 -0.30527607 2.6934681 4935757
-1.1854496 -0.29363763 2.7244058 4606531
-1.1311889 -0.3017931 2.7059524 5199187
-1.1401547 -0.28932354 2.7386062 4868934
-1.1106952 -0.27297503 2.7838898 4014139
-1.0766424 -0.30444828 2.7021568 5726303
-1.0844845 -0.29114857 2.7370875 5133651
-1.0142214 -0.30544841 2.703239 6516848
-1.0288932 -0.29639646 2.7264528 5989474
-0.98510051 -0.31063029 2.6911922 7241089
-0.9756583 -0.29432327 2.7351649 6516333
-0.93458295 -0.31120303 2.692698 7504263
-0.92422444 -0.29575044 2.7344511 7174525
-0.88522351 -0.31253764 2.6921062 7832976
-0.87000299 -0.29664683 2.7353175 7504003
-0.83311367 -0.31325021 2.6933348 8095891
-0.83419782 -0.29348364 2.7458849 7832199
-0.88459587 -0.27184078 2.8004708 6713198
-0.83255047 -0.27254581 2.8017161 7107958
-1.179931 -0.27031988 2.7868042 2040606
-1.1826104 -0.25465024 2.8283532 131330
-1.1383492 -0.2535539 2.8339267 526342
-1.0883396 -0.25557759 2.8315394 2829867
-1.0468038 -0.26365349 2.8125343 5132619
-1.1830138 -0.23511279 2.8803339 131587
-1.137296 -0.22862381 2.9003484 197380
-1.0888146 -0.21731158 2.9333677 131589
-1.0359581 -0.24123387 2.8728614 4802632
-1.029864 -0.21071318 2.9544675 65795
-1.0369182 -0.20436348 2.9709461 197127
-0.95583975 -0.26991579 2.8013217 5857119
-0.98808688 -0.2599805 2.8258331 5198160
-0.93097979 -0.26146051 2.8253188 5659481
-0.87907147 -0.26265413 2.8252556 6120289
-0.82997364 -0.26354644 2.8258255 6646123
-0.95810199 -0.21405461 2.949878 3026728
-0.93319046 -0.22475682 2.9228847 5262917
-0.98683929 -0.1904351 3.0110242 394758
-0.92320454 -0.17962779 3.0436084 262915
-0.88510942 -0.22576316 2.92309 5263430
-0.86530489 -0.21716624 2.947161 5263430
-0.84504497 -0.24523407 2.8736651 5724247
-0.83317924 -0.22823037 2.9196379 5526609
-0.81526864 -0.21994388 2.9427688 5460559
-0.84443438 -0.20395581 2.9835768 4868417
-0.83987993 -0.17893128 3.0504601 3749417
-0.62625462 -0.47550127 2.2738621 8095893
-0.78462911 -0.45415685 2.3211772 8097437
-0.73231065 -0.46598068 2.2928426 8162459
-0.73494148 -0.45137665 2.3315578 8228510
-0.77808458 -0.42413253 2.4014885 8557473
-0.73810887 -0.42797396 2.3936615 8426143
-0.75024027 -0.41333482 2.4319003 8557729
-0.68628448 -0.44118154 2.361614 8425117
-0.63735431 -0.453466 2.3318501 8359067
-0.68628448 -0.44118154 2.361614 8425117
-0.69001973 -0.41002804 2.4443145 8557472
-0.623119 -0.42272323 2.414535 8556443
-0.63433248 -0.4114598 2.4438436 8752794
-0.78638655 -0.39362031 2.4822083 8623780
-0.78902787 -0.37759262 2.5247123 8689316
-0.72109878 -0.39371699 2.485867 8623267
-0.71486259 -0.3807449 2.5207703 8689059
-0.77970314 -0.35256335 2.5918949 8623522
-0.7847898 -0.33786708 2.6307085 8557471
-0.71470916 -0.3546598 2.5902131 9082530
-0.73806792 -0.34003112 2.6277506 8754337
-0.63916337 -0.37797561 2.5326822 8688544
-0.67824364 -0.36151877 2.5741429 8688800
-0.68421584 -0.34093937 2.6285632 8623006
-0.63496947 -0.35653722 2.5899987 8885408
-0.63060099 -0.34132534 2.6307521 8885151
-0.57446706 -0.47239485 2.2852373 6648954
-0.52215302 -0.470669 2.292969 6514798
-0.4429673 -0.47388154 2.2891676 8356226
-0.57991153 -0.44378278 2.3610704 8358807
-0.51806521 -0.45304814 2.3401175 8358293
-0.5856849 -0.43107942 2.3945379 8621724
-0.58495045 -0.41244292 2.4441888 8687772
-0.53724921 -0.43175772 2.3956378 8686745
-0.534365 -0.41281182 2.4462411 8883868
-0.46321398 -0.45715415 2.3324783 4472629
-0.42462292 -0.44651622 2.3631091 4933180
-0.48265332 -0.4341076 2.3926578 8620692
-0.48218769 -0.41156247 2.4526966 8752536
-0.44201884 -0.4155094 2.4445999 8686739
-0.58470535 -0.37878558 2.5337927 8819614
-0.54358351 -0.39983165 2.4802389 8753563
-0.50975376 -0.37329382 2.5529068 8950171
-0.58997136 -0.35750547 2.5901206 8884895
-0.58867973 -0.34243158 2.6303217 8885148
-0.5254097 -0.34872872 2.6173551 8950428
-0.4846293 -0.39957565 2.4844565 8818329
-0.48345846 -0.38165405 2.5322306 8818586
-0.43130085 -0.37824076 2.5444446 8883862
-0.45982268 -0.34701121 2.6258609 8949656
-0.41789049 -0.36651906 2.5764499 8884118
-0.44919088 -0.3396093 2.6462011 8949660
-0.78516841 -0.31460172 2.6926136 8424602
-0.76106143 -0.29404157 2.7487867 8161169
-0.73396438 -0.31619847 2.6914346 8556443
-0.73566961 -0.30031091 2.7336221 8227477
-0.78428 -0.27452129 2.7993534 7765636
-0.68490374 -0.31765309 2.6905053 8622748
-0.6829319 -0.30180421 2.7328105 8556442
-0.63390434 -0.31829879 2.6918461 8753565
-0.6345886 -0.30295545 2.7326458 8621978
-0.70181102 -0.27676329 2.7983322 8160653
-0.6303497 -0.28631222 2.7772012 8489365
-0.58476132 -0.31978226 2.6908448 8819100
-0.58485144 -0.30424815 2.7321885 8687514
-0.53956002 -0.32507107 2.6794784 8950170
-0.52640766 -0.30302694 2.7389443 8686996
-0.57622957 -0.28725925 2.7779264 8489619
-0.53976279 -0.28774318 2.7788258 8554898
-0.48257124 -0.32132971 2.6928556 9015696
-0.50135231 -0.29830956 2.7530043 8818579
-0.7595095 -0.25772312 2.8455524 7304823
-0.68318689 -0.25943145 2.8455832 7831167
-0.62510628 -0.26068971 2.8457181 7106157
-0.7754187 -0.22042455 2.9438801 5592144
-0.72741008 -0.24947877 2.8694227 7238773
-0.7374059 -0.22206089 2.9418046 6250077
-0.78452533 -0.20170014 2.9931741 5197383
-0.72182626 -0.20288461 2.9937823 5591886
-0.70551109 -0.18306689 3.0475118 5328967
-0.68548042 -0.22241251 2.9439828 6447712
-0.6536631 -0.24393277 2.8886085 6382174
-0.63341749 -0.23192319 2.9217901 6908778
-0.68792635 -0.20271875 2.9962573 5592396
-0.88659757 -0.17076494 3.0693955 197379
-0.860367 -0.16471815 3.0870643 789258
-0.87993115 -0.14667913 3.1339071 131329
-0.84207922 -0.13962382 3.1549573 393990
-0.84450215 -0.12884836 3.1834943 526094
-0.77396291 -0.15062039 3.1297724 3618094
-0.72374451 -0.16268809 3.1006627 5591358
-0.78340155 -0.12940571 3.1856751 3814964
-0.62629789 -0.080816813 3.3244333 0
-0.41400445 -0.14812124 3.1580157 3884090
-0.42448175 -0.11392576 3.2484093 5985864
-0.56958485 -0.092794009 3.295954 2113601
-0.57405502 -0.0713351 3.3528056 657157
-0.51397282 -0.086143851 3.3169913 1447182
-0.48177209 -0.10247679 3.2754478 5060641
-0.47389236 -0.07421574 3.3511457 787971
-0.43068463 -0.1016547 3.2806997 6839624
-0.54449189 -0.052463453 3.4048116 853761
-0.48229262 -0.062170964 3.3827026 722432
-0.41668078 -0.062527008 3.3856907 1248262
-0.43419984 -0.039243523 3.4466162 985602
-0.38301331 -0.68138909 1.7404187 6842981
-0.33960724 -0.68255568 1.739917 6974308
-0.28401133 -0.68225217 1.7440598 7105636
-0.22515598 -0.69049251 1.7256557 7237468
-0.16490339 -0.6873278 1.7376939 7565402
-0.11523266 -0.6891526 1.735816 7762268
-0.065054439 -0.69051814 1.735191 8090461
-0.041009486 -0.68407178 1.7537923 8221535
-0.026582368 -0.6735248 1.7827317 8221535
0.014859293 -0.68613815 1.7516432 8353120
0.066621363 -0.68996727 1.7445555 8484702
0.0089069763 -0.6716153 1.7899431 8287583
0.11881945 -0.69665074 1.7298964 8681569
-0.38950524 -0.64087635 1.8478665 7040876
-0.33631006 -0.65580547 1.8113186 7105897
-0.335022 -0.64231968 1.8472928 7171947
-0.28394985 -0.65641129 1.812847 7302758
-0.28435284 -0.64302218 1.848462 7368809
-0.23685627 -0.66309094 1.7978919 7302757
-0.23719929 -0.64608371 1.8431412 7499879
-0.18491824 -0.6649757 1.7959903 7565156
-0.18710379 -0.64685237 1.8441001 7696486
-0.13233383 -0.66681373 1.7942519 7762018
-0.13380234 -0.64781761 1.844728 7893605
-0.075129837 -0.6699602 1.7893081 8090208
-0.087412655 -0.6522162 1.8358023 8024931
-0.040176459 -0.64388555 1.8608103 8221795
-0.38884804 -0.5997712 1.9573196 7435893
-0.33264801 -0.62644261 1.8896968 7369071
-0.33613598 -0.61065537 1.9315102 7566450
-0.38262665 -0.58492517 1.9972104 7698295
-0.33504277 -0.59167713 1.982092 7829622
-0.33663696 -0.57066411 2.0379291 8026747
-0.38586819 -0.56942916 2.0382633 7829883
-0.28432974 -0.62736768 1.8901328 7565932
-0.28411552 -0.60196131 1.9577723 7829362
-0.23247094 -0.62748659 1.8929269 7697259
-0.23323748 -0.60966063 1.9403301 7894639
-0.28700712 -0.58830088 1.9939604 8026483
-0.23396151 -0.59148151 1.988676 8091763
-0.23461269 -0.5739395 2.0353303 8157812
-0.3896662 -0.55504853 2.076314 7961982
-0.33932239 -0.55443794 2.0809588 8158333
-0.38073418 -0.51930964 2.1719797 8355714
-0.38256091 -0.49608231 2.2336967 8422021
-0.3332209 -0.51579332 2.1841893 8421504
-0.33737841 -0.49475232 2.2399471 8553092
-0.28469744 -0.5466696 2.1049132 8289658
-0.28458798 -0.53439426 2.1375942 8355451
-0.23586841 -0.5538255 2.0887945 8289399
-0.23343869 -0.53978032 2.1263258 8355193
-0.28919503 -0.52002311 2.1755714 8421246
-0.28199518 -0.50153339 2.2252192 8552576
-0.23961982 -0.52031171 2.1777768 8421243
-0.23131686 -0.48925069 2.2609534 8552832
-0.17728963 -0.630732 1.8875979 7763050
-0.18270802 -0.61204457 1.9370153 7894382
-0.12861009 -0.62899631 1.8951381 7959657
-0.13692312 -0.6124934 1.9385669 8025453
-0.18482202 -0.59192312 1.990448 8026224
-0.18403591 -0.57213914 2.0431561 8223348
-0.13686743 -0.59277767 1.9910498 8157295
-0.13634196 -0.57495803 2.0385137 8288882
-0.082335025 -0.63179523 1.8904635 8091239
-0.085395448 -0.61621302 1.9317567 8157032
-0.036381193 -0.63197553 1.89274 8222566
-0.034870397 -0.61659741 1.9337642 8353895
-0.056186751 -0.59142238 1.9994967 8550765
-0.058435574 -0.57767951 2.0359426 8616556
-0.029029485 -0.59993815 1.9784583 8681836
-0.18787356 -0.55565369 2.086807 8354677
-0.19355221 -0.53327036 2.1460466 8420985
-0.13444966 -0.55959338 2.079525 8420469
-0.19160764 -0.51497406 2.1948645 8486780
-0.19637629 -0.49924725 2.2364402 8552572
-0.14579195 -0.50848597 2.2148826 8552824
-0.086032197 -0.55739641 2.0882771 8617584
0.019362967 -0.64568943 1.85958 8353122
0.089816056 -0.66749316 1.8057687 8418912
0.015207444 -0.63498574 1.887822 8418916
0.36185712 -0.62076914 1.9464566 7168093
0.32550088 -0.58386177 2.0425162 8681572
0.37106854 -0.60779727 1.9815377 8944232
0.36304918 -0.58127129 2.0516636 8681316
0.2575227 -0.54567009 2.1400976 8681832
0.2241928 -0.52166098 2.2020061 8682090
0.22761057 -0.50480908 2.2470677 8747369
0.26245335 -0.52300292 2.2007291 8616042
0.26679116 -0.50900513 2.2382483 8681834
0.32687002 -0.56926835 2.0814431 8681572
0.31971395 -0.54935235 2.1340265 8681574
0.3647716 -0.5681513 2.0866899 8747110
0.36606216 -0.55108774 2.1321874 8746854
0.31765747 -0.52315265 2.2036419 8747112
0.31550643 -0.50963968 2.2394814 8812650
0.36302507 -0.53107828 2.1852663 8747111
0.3646332 -0.51087624 2.2391369 8812648
0.47132644 -0.69990927 1.7423673 9667431
0.47937414 -0.68014896 1.7954482 9404261
0.54383379 -0.69850868 1.7504445 9864039
0.58213007 -0.69927108 1.7507122 9535847
0.51674879 -0.68039566 1.7970332 9732713
0.56446034 -0.68332386 1.7921005 9206883
0.60947973 -0.69741547 1.757292 9338470
0.65875554 -0.69711304 1.7610526 9075554
0.61859637 -0.68326277 1.7955105 9009761
0.67360628 -0.68716162 1.7884322 8746846
0.72195566 -0.70060658 1.7555442 8615517
0.71051729 -0.68481135 1.7969023 8615262
0.76670951 -0.68512356 1.7994417 8351834
0.80105394 -0.70117521 1.7587755 8088921
0.85376203 -0.7074517 1.7452301 7826005
0.81471789 -0.68640369 1.798914 8023128
0.88499475 -0.68600833 1.8041817 7497042
0.4428674 -0.66283184 1.8393531 9075296
0.47903723 -0.65473402 1.8630774 9009505
0.56375259 -0.65679038 1.8626852 8878177
0.61570162 -0.6571824 1.8647578 8746592
0.66446358 -0.65937001 1.8618597 8615006
0.71575075 -0.66015983 1.8628336 8483677
0.77116472 -0.66907942 1.8424155 8286045
0.4269127 -0.63540119 1.9114109 8943970
0.39994642 -0.62403208 1.9400561 8483414
0.47027916 -0.64149421 1.8977939 8943971
0.45930859 -0.62437463 1.9427049 8878178
0.416789 -0.60048884 2.0037339 8154712
0.4071146 -0.58538353 2.0433609 8089174
0.45798916 -0.60631037 1.9907093 8812387
0.46024558 -0.5884192 2.0384674 8812388
0.51240009 -0.64253074 1.8975616 8878178
0.51523161 -0.62967509 1.9319506 8812386
0.56400502 -0.64128548 1.9039716 8681058
0.56478566 -0.62568623 1.9455404 8681056
0.51567882 -0.5994314 2.0124803 8746594
0.51192319 -0.58386046 2.0537019 8681315
0.56075597 -0.60856807 1.9908642 8680801
0.56601447 -0.5917238 2.0360155 8615266
0.42428356 -0.54373711 2.1552455 8549475
0.46914119 -0.56849718 2.0920296 8746852
0.41702324 -0.52862918 2.1950245 8286817
0.41243607 -0.51266026 2.2372553 8549475
0.47624284 -0.53901422 2.1709335 8681060
0.56511337 -0.5750252 2.0804102 8681059
0.51638222 -0.56903368 2.0934353 8681316
0.50940597 -0.55484945 2.1307724 8681317
0.56746858 -0.55755341 2.127058 8746854
0.50714034 -0.52755576 2.2032871 8746856
0.51044065 -0.51328623 2.2414677 8747113
0.56463802 -0.53081071 2.198072 8812391
0.56428432 -0.51423502 2.242172 8747115
0.61522907 -0.64407665 1.8996145 8615008
0.61438715 -0.6308825 1.934684 8549472
0.66458482 -0.64625198 1.8967847 8614751
0.66501564 -0.63265878 1.9329929 8483679
0.61520427 -0.60332566 2.0080841 8549473
0.61546391 -0.58927441 2.0455015 8549731
0.66330838 -0.60443902 2.0080061 8483424
0.66504341 -0.59011179 2.0462463 8418147
0.71553046 -0.64685482 1.8982359 8483165
0.76720601 -0.65240085 1.8865731 8286300
0.76337612 -0.63406593 1.9351473 8286046
0.7159164 -0.60576457 2.0076332 8286560
0.71460062 -0.59139639 2.0457997 8220769
0.77040952 -0.60456914 2.0140841 8023388
0.76389772 -0.58885032 2.0555339 7892062
0.61061054 -0.57283467 2.0889697 8615525
0.6150797 -0.55627835 2.1333077 8615783
0.66161197 -0.5488463 2.1558812 8418407
0.61587423 -0.53387123 2.1929989 8615784
0.61495131 -0.51597929 2.2405682 8549993
0.6696285 -0.53285819 2.1989198 8221541
0.66493094 -0.51699293 2.2408683 8155750
0.71662903 -0.57587701 2.0872309 8089442
0.76096052 -0.57500899 2.0922005 7629659
0.71452242 -0.54858208 2.1597583 7826529
0.76123792 -0.55172658 2.1541905 7103317
0.71876746 -0.53299183 2.2015114 7432027
0.73213458 -0.5100528 2.2633724 5985100
0.77425921 -0.5418309 2.1813121 6050890
0.75642031 -0.52435458 2.2267606 5919562
0.81437248 -0.66901314 1.8451834 8023129
0.9224391 -0.66257006 1.8688158 6905421
0.81266093 -0.64954627 1.8968979 8088922
0.81617677 -0.63189322 1.9440979 7826265
0.86560518 -0.64533025 1.9112958 7497558
0.86552179 -0.63140506 1.9483571 7366230
0.81699228 -0.61434835 1.9908477 7628890
0.81908846 -0.59559047 2.0409033 7169110
0.86408567 -0.61354303 1.9958162 6971731
0.86521751 -0.59501266 2.0452082 6050374
0.93683416 -0.64784932 1.9088631 6314311
0.90843397 -0.6321041 1.9490701 6708814
0.95015717 -0.63700056 1.9385395 5919808
0.91309601 -0.61651367 1.9908487 5984837
0.93972772 -0.59945345 2.0378573 5591367
0.81014264 -0.57892901 2.0847163 6971217
0.81250787 -0.56193072 2.1301043 5787463
0.87404484 -0.51950866 2.2467146 8223337
0.91996557 -0.57407486 2.1042247 6053204
0.96476418 -0.58327281 2.0824285 6380887
0.91795361 -0.55409557 2.157285 7629923
0.97947693 -0.56670791 2.1274037 7302755
0.93064344 -0.54038286 2.1945467 7762791
0.92493224 -0.5229466 2.2406163 8223605
0.97417527 -0.54211324 2.1925521 7631723
0.96660531 -0.52387279 2.2406502 8091763
1.0236177 -0.57964903 2.0956047 7105124
1.0516114 -0.57135385 2.1193638 7302505
1.0307912 -0.56595457 2.1324868 7302759
1.0714517 -0.55642515 2.1602912 7828331
1.0154926 -0.53729618 2.2078521 7894898
1.0171947 -0.52721959 2.2347765 8157557
1.0642154 -0.54781735 2.1827695 7894384
1.1118902 -0.52648503 2.2424116 8026228
-0.37765408 -0.4781062 2.2818401 8553864
-0.284343 -0.47680131 2.2909105 8684421
-0.23874584 -0.47880939 2.2883003 8618625
-0.3172062 -0.46454862 2.3215535 8750215
-0.3672815 -0.43703368 2.3917894 4867384
-0.38387513 -0.41674888 2.4447882 8751759
-0.33780527 -0.41853613 2.4427941 8817292
-0.29182523 -0.44885474 2.36485 8684935
-0.24715607 -0.46404836 2.3270869 8750465
-0.36320913 -0.39735427 2.4976528 8883089
-0.37452725 -0.38385254 2.5329127 8883602
-0.055341505 -0.35020807 2.6416132 8552315
-0.029496379 -0.35304683 2.6356072 8486520
-0.11356685 -0.31517729 2.7313657 8552833
-0.16450852 -0.27164853 2.8441756 8552831
-0.12317946 -0.29896605 2.7739403 8683902
-0.12837531 -0.28026479 2.8234081 8552572
-0.078930646 -0.33459488 2.6817577 8618107
-0.080634803 -0.31483644 2.7342486 8486780
-0.034100201 -0.33205324 2.6912119 8420984
-0.033069074 -0.31633314 2.7331176 8420729
-0.078847624 -0.29840392 2.778096 8486780
-0.084617123 -0.27180275 2.8485575 8552315
-0.040676862 -0.29271305 2.7955334 8486521
-0.033784255 -0.28279334 2.8223512 8420984
-0.34025294 -0.19095279 3.0484304 8157814
-0.23383674 -0.25181231 2.8928168 8486777
-0.25296065 -0.23500773 2.9364004 5920862
-0.26075998 -0.21417591 2.9913831 8487550
-0.25556999 -0.19396459 3.0454929 8157813
-0.22933823 -0.21388428 2.9940438 8421241
-0.18870105 -0.25250164 2.8936896 8552831
-0.13336048 -0.25326565 2.8949754 8552572
-0.17891788 -0.22508749 2.9672475 8552832
-0.18417957 -0.21506652 2.9936059 8552317
-0.13514841 -0.22571814 2.9681945 8486779
-0.13833416 -0.21569604 2.9946802 8421497
-0.082950719 -0.25454113 2.8946042 8486523
-0.038614932 -0.25545433 2.8948328 8355448
-0.089778863 -0.22584915 2.9705672 8355193
-0.096400626 -0.216144 2.9960029 8289656
-0.086128391 -0.20547998 3.0250051 8223605
-0.015027069 -0.21807569 2.9957423 8223088
-0.030349068 -0.20686506 3.0246637 8091759
0.13923228 -0.48277867 2.3004069 8813680
0.17430991 -0.48267612 2.302784 8747885
0.091114283 -0.46220779 2.3522763 8945005
0.079361662 -0.43479896 2.4245286 9077879
0.13078777 -0.45952955 2.3617852 8682865
0.16115391 -0.46394503 2.3518534 8617325
0.13675936 -0.44386002 2.4038525 8682607
0.12053677 -0.42786303 2.4454603 8748402
0.19309972 -0.45099837 2.388231 8682350
0.1811389 -0.43070367 2.4415343 8617072
0.02518688 -0.38704479 2.5483913 8552311
0.060182303 -0.40779093 2.4952683 8617587
0.067333832 -0.39677155 2.5250285 8486515
0.080288194 -0.37473342 2.5844667 8551797
0.0087403953 -0.36509967 2.6058185 8552056
0.014207545 -0.3530691 2.6381693 8486520
0.073506467 -0.35392606 2.6394453 8486261
0.12444846 -0.4135164 2.4838831 8551794
0.12003949 -0.39441314 2.5344679 8551793
0.17970903 -0.41368875 2.4867389 8682607
0.18554641 -0.39582625 2.5346355 8682610
0.16569251 -0.37378424 2.5921161 8617329
0.12274637 -0.36791667 2.6051586 8420721
0.11124335 -0.35819143 2.6303554 8486005
0.16570032 -0.35869464 2.6322823 8551536
0.21029264 -0.493559 2.275974 8747371
0.26303241 -0.49537522 2.2743032 8682091
0.31431925 -0.49652365 2.2743227 8812907
0.36763698 -0.48607555 2.3053315 8813163
0.36699602 -0.47135401 2.3444791 8878956
0.21483253 -0.46526766 2.3515527 8813419
0.26355165 -0.46721482 2.3492918 8682348
0.21997494 -0.45627466 2.3757985 8551533
0.20448104 -0.42878082 2.4480526 8747887
0.2646845 -0.4571211 2.3762274 8747884
0.31506309 -0.46734232 2.3520424 8878956
0.3149614 -0.45812804 2.3765628 8813679
0.3306874 -0.43872154 2.4291625 8879470
0.39398262 -0.45369649 2.3930986 8944750
0.36745837 -0.43364608 2.4448781 9010543
0.24001943 -0.41170165 2.4956458 8748141
0.24200018 -0.39264873 2.5464799 8748399
0.28495175 -0.42137095 2.4726031 8813936
0.27054051 -0.39839235 2.5329032 8814192
0.26904428 -0.38006088 2.5816083 8879730
0.2024834 -0.35852692 2.6349351 8813938
0.26954272 -0.35827658 2.6396239 8945782
0.30515233 -0.41281599 2.4965866 8945007
0.31538332 -0.3990815 2.5337586 8945266
0.36475322 -0.4147144 2.4951084 9076336
0.35920417 -0.39549607 2.5459309 9076593
0.32186085 -0.37913248 2.5872476 8945781
0.363094 -0.3825404 2.5806499 9011317
0.32430282 -0.35951099 2.6396227 8946295
0.36791778 -0.35893813 2.6437638 8880761
0.015162349 -0.33325046 2.69098 8420726
0.015252048 -0.31779918 2.7321138 8355188
0.063761555 -0.33779129 2.6818082 8486007
0.064739473 -0.31871587 2.7326422 8486006
0.020311514 -0.3016724 2.7753437 8420726
0.015735988 -0.2741825 2.848242 8486262
0.073863238 -0.30231625 2.7768419 8486261
0.060961004 -0.27509239 2.8485324 8420726
0.11548786 -0.34195352 2.6738319 8486260
0.12125411 -0.31906965 2.7350903 8551796
0.16933624 -0.34322256 2.6736844 8748657
0.17809324 -0.3197321 2.7367365 8683635
0.11993977 -0.30265617 2.7787008 8617334
0.10020705 -0.27582595 2.8489342 8552055
0.16650759 -0.30302447 2.780514 8748917
0.16053446 -0.27693158 2.8496101 8749175
0.22589691 -0.32194713 2.7337079 8946035
0.27217945 -0.32302576 2.7336128 9077626
0.2155347 -0.30447561 2.779592 8880760
0.26449403 -0.3060278 2.7783973 8946555
0.24868456 -0.27958459 2.8478355 8881019
0.31078067 -0.32366642 2.7342229 9012092
0.37278789 -0.32452795 2.7356491 8552308
0.31371951 -0.30652356 2.7800303 8946299
0.32340562 -0.28977546 2.8251915 8420983
0.37267056 -0.29275221 2.8202231 7039332
0.36461899 -0.2739833 2.8696992 7631215
0.0095129199 -0.25647908 2.8949919 8420982
0.066825405 -0.25827092 2.8936601 8486519
0.010667133 -0.22828896 2.9700975 8354673
0.029799482 -0.21884748 2.9963765 8223342
0.024490098 -0.2081506 3.0245314 8090988
0.069837682 -0.22942002 2.9706366 8354926
0.064049125 -0.20906869 3.0244606 8091494
0.11793906 -0.25846499 2.8962092 8552050
0.15903577 -0.25931033 2.8964245 8748919
0.12124489 -0.2301003 2.971909 8551532
0.1050394 -0.22040337 2.9967484 8288873
0.11576974 -0.21047649 3.0238154 8157031
0.16957428 -0.23124506 2.9717607 8551793
0.17581794 -0.21119961 3.0254924 7960426
0.20549543 -0.26034695 2.8964517 8880761
0.21448484 -0.24428977 2.9397323 8552309
0.27094847 -0.26229921 2.8951817 8683897
0.23034216 -0.2324024 2.9723251 8158320
0.20648892 -0.20595179 3.041301 6710368
0.29150808 -0.22035699 3.0080564 7105383
0.2660417 -0.21051839 3.0327177 6578781
0.31703708 -0.24322887 2.9487073 7499883
0.34519723 -0.2604028 2.9046829 7895145
0.31386098 -0.20900463 3.0396156 8683898
0.38543829 -0.23102036 2.9853067 9801601
0.37696263 -0.21245158 3.0342255 9867906
-0.32462806 -0.17158349 3.1009252 7105378
-0.35849473 -0.15999611 3.1297367 7039327
-0.32961982 -0.16067621 3.1296585 7171170
-0.37863025 -0.12574907 3.2196884 6117451
-0.3087368 -0.13960133 3.1870084 7104093
-0.33389488 -0.12696387 3.2191377 6578254
-0.34664425 -0.11559404 3.2486374 6380362
-0.28623644 -0.18321702 3.0722616 7894895
-0.28486097 -0.16214037 3.1284456 7565156
-0.23384474 -0.16218868 3.1313775 7499622
-0.28445151 -0.12846738 3.2181015 7038298
-0.25416318 -0.14025599 3.1885393 7235679
-0.23455851 -0.12909304 3.219429 7038301
-0.38435796 -0.10335824 3.2789445 6116930
-0.36051816 -0.079137735 3.3448446 5852986
-0.3306717 -0.10468218 3.278641 6380361
-0.28892007 -0.10570233 3.2784297 6709074
-0.26333773 -0.082285561 3.3422952 6643534
-0.23348634 -0.10642797 3.2798231 6972762
-0.36736643 -0.050835717 3.4197688 788224
-0.34069744 -0.042432759 3.4437354 1051396
-0.29993397 -0.068432949 3.3769732 6971207
-0.2344504 -0.069999389 3.3767312 7102795
-0.18396026 -0.18413234 3.0759597 8026222
-0.13010995 -0.18582849 3.0746751 8223604
-0.18565752 -0.16304278 3.1319945 7762536
-0.13233571 -0.16410458 3.1323669 7959400
-0.18879053 -0.14137793 3.1894741 7433312
-0.18054608 -0.12957092 3.2213967 7169884
-0.13366382 -0.14266297 3.1893606 7564897
-0.13375655 -0.13136663 3.2194233 7367515
-0.074262068 -0.18628392 3.0768125 8223089
-0.014400943 -0.18837556 3.0748358 8157292
-0.083844908 -0.1642496 3.1348894 7893606
-0.033512361 -0.16606148 3.1330855 7894372
-0.083859667 -0.14327952 3.1907065 7630432
-0.084701717 -0.13124399 3.222692 7301723
-0.03864342 -0.14393485 3.1916747 7564894
-0.038724184 -0.13269632 3.2215843 7367515
-0.18426506 -0.10712147 3.2809296 7038554
-0.1343192 -0.10820411 3.2810438 7104344
-0.18474689 -0.070682436 3.3778942 7170134
-0.13315836 -0.071391732 3.3791006 7367257
-0.08383888 -0.10896671 3.2820418 7235671
-0.037737217 -0.11006065 3.2818952 7169877
-0.013596446 -0.086736456 3.3454278 6643794
-0.083305784 -0.072452441 3.3792677 7169368
-0.029651131 -0.073340476 3.3801224 6446411
-0.027512938 -0.0470073 3.4503443 4011821
-0.33561966 -0.017950384 3.5092072 985603
-0.27279553 -0.028864522 3.4839242 985603
-0.25553527 -0.0044698464 3.5498934 1116932
-0.23225185 -0.019676529 3.5108128 1051396
-0.20149745 -0.012441112 3.5319171 853760
-0.1344064 0.003374103 3.5780382 590848
-0.066283047 0.0028744577 3.5807946 2958874
-0.088456333 0.016974989 3.6169972 66052
-0.01390742 0.00071128469 3.5781782 5459245
-0.042916909 0.024194494 3.6389458 5260582
0.021912482 -0.18878883 3.0759139 8024679
0.060063228 -0.18947086 3.0763869 7827807
0.015880486 -0.16701324 3.1335146 7696482
0.061846539 -0.16763537 3.1346159 7169625
0.016434792 -0.14545831 3.1909227 7499103
0.020449784 -0.13438921 3.2206273 7235932
0.061443314 -0.14605755 3.1920273 6709335
0.069405265 -0.13503385 3.221848 6315602
0.1253086 -0.17974064 3.1062005 7169366
0.15603364 -0.19106653 3.0778959 7565409
0.1283749 -0.16886365 3.1353366 6380108
0.17533727 -0.16673572 3.1438179 5196870
0.11926091 -0.14695434 3.1931086 5525316
0.1420825 -0.12963347 3.240582 4932139
0.18292548 -0.15558635 3.1739507 6313534
0.18311456 -0.12867941 3.2455828 5917999
0.026768249 -0.11170137 3.2813969 6776149
0.081378631 -0.10853008 3.2931142 4670009
0.085258015 -0.093482465 3.3334007 5920577
0.039830711 -0.07191918 3.3880732 4472113
0.11911352 -0.11501532 3.278115 4801338
0.035347361 -0.044171941 3.4616623 4734768
0.064578861 -0.057382412 3.4282517 5261370
0.23189859 -0.18744153 3.0920956 7039070
0.20946968 -0.17246558 3.1306133 6906710
0.25658306 -0.17737812 3.1203635 7697002
0.25964573 -0.16701864 3.1481218 8421226
0.2355161 -0.15516244 3.1782331 8025959
0.27500921 -0.15763627 3.1740174 8683631
0.28401473 -0.13764408 3.227773 9867644
0.390908 -0.19466382 3.0824091 10657677
0.32334739 -0.17002188 3.1439486 10787721
0.32016253 -0.13990459 3.2239242 10591371
0.37101388 -0.15229174 3.1940019 11314584
0.21016537 -0.10827315 3.301523 6775369
0.26984647 -0.1152919 3.2864203 10392959
0.23513347 -0.07667537 3.3871279 10195321
0.27117202 -0.079606354 3.3814881 10721158
0.31989172 -0.11748683 3.2835798 10919565
0.36542389 -0.11791108 3.2851815 11248532
0.2551336 -0.052977849 3.4514058 10457982
0.32173979 -0.054668691 3.4509001 10984328
0.3658331 -0.055737648 3.4506998 11313804
0.08741615 0.014463152 3.6208606 6247240
-0.0044276095 0.033108789 3.6649826 3025181
0.095913574 -0.014826838 3.5434062 5524802
0.035796735 0.042300038 3.6918607 1182725
0.26570785 -0.040995713 3.4839342 10326394
0.31570941 -0.042099379 3.4839954 10852740
0.36269659 -0.043175321 3.4839501 11116682
0.3660554 -0.029741775 3.5199091 11116168
0.28253603 0.040480979 3.7018185 8548433
0.24898091 0.054773651 3.7378504 7497298
0.32693028 0.046540201 3.7206097 9207132
0.3135404 0.071721047 3.7868338 9009507
0.37310359 0.096730217 3.8569756 9535833
0.41273496 -0.48979437 2.2981381 8813161
0.41760775 -0.47322914 2.3425236 8879213
0.47161809 -0.48824453 2.3057954 8353126
0.51375896 -0.4977062 2.2831378 8616041
0.50047213 -0.47126827 2.3527136 8616297
0.56251949 -0.49898842 2.2826498 8812908
0.55437291 -0.48003197 2.3326194 8682094
0.45524392 -0.4694317 2.3548894 7564636
0.41647029 -0.44204655 2.4254572 8944750
0.46784109 -0.45571786 2.3921483 8419176
0.45255306 -0.43782431 2.4388607 9010801
0.52392495 -0.45506313 2.3972552 8222315
0.53597784 -0.4443678 2.4264472 7103579
0.56025803 -0.46324506 2.3776562 8551024
0.5698126 -0.44482484 2.4272599 8287851
0.40540716 -0.41096497 2.5075271 9011058
0.41504133 -0.39793301 2.5427935 8945780
0.46574494 -0.41741034 2.4939899 8682864
0.4795174 -0.40486172 2.5282183 8486002
0.41783896 -0.38043204 2.5895455 8880245
0.46898669 -0.37074152 2.6184077 8223087
0.41368532 -0.36105385 2.6408772 8814966
0.513574 -0.42343268 2.4808283 8419951
0.51975471 -0.4027876 2.5361526 7104351
0.57902437 -0.40798745 2.5258667 8356228
0.53515488 -0.38011765 2.5974193 9339766
0.5184589 -0.36277029 2.6425931 7696749
0.57848912 -0.36389923 2.643189 12820625
0.62124234 -0.49392205 2.2996578 8287592
0.60803497 -0.47375882 2.352536 8222823
0.66503978 -0.50121957 2.2828603 7827043
0.67857116 -0.47082824 2.3645675 6842213
0.71521002 -0.49545169 2.3012226 5985103
0.75515729 -0.48332253 2.3359039 6381142
0.63874847 -0.45102364 2.4148951 7434858
0.63512945 -0.44319966 2.4355037 8882317
0.66944349 -0.46092099 2.3903913 6248532
0.68358761 -0.44059545 2.4453425 8422022
0.71923536 -0.46324292 2.3871975 6448226
0.72422451 -0.44495589 2.4361732 8420991
0.77461368 -0.46620888 2.3826246 7630699
0.77797902 -0.43746385 2.4593396 9209984
0.61238873 -0.42955762 2.4704523 7895929
0.61796874 -0.41415173 2.5117943 9212311
0.629125 -0.39885509 2.5531805 10461860
0.67327648 -0.42188221 2.494535 9342865
0.60980564 -0.38449934 2.5902338 10330273
0.669191 -0.38646254 2.5885701 9934231
0.61433369 -0.36376074 2.6457076 10065811
0.67570269 -0.36850759 2.6367533 10196374
0.72384858 -0.42518133 2.4887867 9276295
0.74126989 -0.40041715 2.5557489 9933967
0.78598195 -0.42359033 2.4967484 9605000
0.76608205 -0.4109762 2.5291317 9736074
0.71082819 -0.38616592 2.5918572 10065297
0.76692098 -0.38962209 2.5860221 10131089
0.70997828 -0.3696968 2.635644 10262677
0.42231682 -0.32423878 2.7393897 6578526
0.47416776 -0.3447389 2.6879325 7499882
0.45961094 -0.33390185 2.7159054 6315097
0.47009507 -0.31765932 2.7597687 8618623
0.42369017 -0.30872396 2.7807693 8356216
0.43939504 -0.28550288 2.8435216 9933968
0.4696573 -0.30474296 2.7941234 9079171
0.46220133 -0.28816468 2.8378043 9605517
0.53365034 -0.35110936 2.6745434 8618625
0.51668787 -0.32434136 2.7447774 9868949
0.56813073 -0.34763822 2.6858513 10394781
0.56401825 -0.33208051 2.7270164 10000018
0.52803761 -0.30979267 2.7841837 9802124
0.53642929 -0.29233128 2.831166 10723224
0.57975864 -0.31087011 2.7844181 11182752
0.48036867 -0.272241 2.8812799 10131345
0.60619766 -0.34962296 2.6828513 13810334
0.61523771 -0.32804915 2.7408192 12561287
0.67473042 -0.35456425 2.6738095 10196632
0.62044293 -0.31231651 2.7830086 14204298
0.64093167 -0.29527339 2.829603 1447442
0.66046131 -0.31282619 2.7840524 11249313
0.71419913 -0.33588377 2.7259011 10723485
0.77100682 -0.3569465 2.6732435 10591128
0.76670229 -0.33234 2.7384832 10854815
0.71299291 -0.31476438 2.7820442 10986402
0.70140117 -0.29742768 2.8274961 10986398
0.76493025 -0.31630766 2.7810516 10920864
0.77035606 -0.29938516 2.8264215 11249058
0.71337748 -0.27895465 2.8773859 11446437
0.76028734 -0.27157217 2.8998504 11512486
0.41635668 -0.26853552 2.8873034 9276550
0.39522776 -0.24984619 2.9357834 9736330
0.4846451 -0.25526994 2.9267099 10920855
0.43368214 -0.23425294 2.9795966 10920338
0.40906191 -0.21430764 3.0312099 11117720
0.47641093 -0.2179108 3.0256588 11381151
0.5104 -0.26682395 2.8975003 10789274
0.52470636 -0.25773266 2.9225578 11052189
0.59114271 -0.2676121 2.9002454 8354936
0.51065415 -0.2087602 3.0520701 11644067
0.56789094 -0.23889555 2.9752884 11578277
0.5508253 -0.21984568 3.0249722 11709861
0.62835491 -0.25899321 2.9254198 11841450
0.68902266 -0.26950583 2.9010758 9406851
0.61797279 -0.24003443 2.9752614 6907747
0.67042494 -0.24287753 2.97084 5263182
0.64638317 -0.21129249 3.0534708 11381412
0.70129001 -0.2607407 2.925143 9604488
0.77190924 -0.26229498 2.9252415 11578280
0.71393311 -0.24196193 2.9758868 11052449
0.7145412 -0.22263514 3.0273676 8288631
0.77981836 -0.21571729 3.0496964 11841195
0.84039211 -0.49703979 2.3045042 9144186
0.81555331 -0.48074612 2.3463845 8617846
0.88477302 -0.49839872 2.3035491 8683893
0.87255597 -0.48307908 2.3435941 8815734
0.92697269 -0.49857986 2.305598 8683898
0.9193396 -0.48540655 2.340205 9012350
0.96829915 -0.50244766 2.2977815 8683899
0.96204442 -0.48261687 2.3501918 9143937
0.80971509 -0.46134928 2.3976653 9012605
0.82566011 -0.44666171 2.4377172 9407364
0.87216312 -0.45705163 2.4128504 9406595
0.86817414 -0.44389334 2.4476361 9538695
0.91771251 -0.46960965 2.3821557 9275522
0.9226532 -0.45126051 2.4312937 9538437
0.9859587 -0.46673012 2.393914 9275266
0.96954882 -0.44793919 2.4429476 9538436
0.82440221 -0.42091581 2.5061722 9932940
0.83014584 -0.40344831 2.5530119 10130832
0.86570907 -0.43017575 2.4840019 9801611
0.86443949 -0.40947804 2.5390186 10065037
0.81517678 -0.38732213 2.5950389 10327955
0.81036264 -0.37175402 2.6361892 10525335
0.86522645 -0.38859791 2.594645 10262418
0.88632882 -0.36988789 2.6457133 10459797
0.91627347 -0.43161184 2.4832125 9801610
0.90986091 -0.41591752 2.5246027 9998733
0.97347784 -0.42762032 2.497268 9801353
0.96350247 -0.41579929 2.5281351 9867404
0.91493666 -0.39678082 2.5758455 10196111
0.96954685 -0.39782873 2.5763319 10064525
0.96498847 -0.37578291 2.6347401 10196625
0.93310702 -0.36483517 2.6619685 10459541
1.0162454 -0.50968248 2.2813997 8354935
1.0212753 -0.49077898 2.3320189 8749437
1.0708855 -0.51253408 2.277087 8223605
1.0652257 -0.48788396 2.3423612 8617851
1.0200592 -0.47500968 2.3739207 9078144
1.143557 -0.50369602 2.3049712 8223864
1.1075569 -0.49186635 2.3342998 8486520
1.1655045 -0.4872306 2.3501153 8486264
1.0144082 -0.44877821 2.4434049 9472645
1.06379 -0.45021439 2.4425442 9340802
1.1011665 -0.46493667 2.4055982 8814972
1.1267763 -0.4487735 2.4501576 8946815
1.1912032 -0.46934021 2.3992777 8486265
1.1588631 -0.45650938 2.4314909 8683643
1.0153074 -0.43282652 2.485919 9604487
1.0115989 -0.41094005 2.5439546 9867402
1.060308 -0.43065932 2.4943871 9472902
1.0632573 -0.41656253 2.5320868 9669766
1.0204935 -0.39823374 2.5783098 9867659
1.0145912 -0.37652591 2.6357377 10064783
1.0647719 -0.37683529 2.637924 9932940
1.1145409 -0.43010262 2.4991219 9275521
1.1148583 -0.41823933 2.5307188 9406852
1.1875108 -0.43316299 2.495353 8815229
1.1669697 -0.41964814 2.5300946 9078145
1.1115179 -0.37399051 2.6483004 9670025
1.1718001 -0.37440366 2.6508164 9341060
0.81490529 -0.35707754 2.6755276 10657178
0.81122756 -0.33261091 2.7404325 10920351
0.8835007 -0.34719682 2.7059429 10657434
0.86595249 -0.33353546 2.7412541 10854558
0.81701446 -0.31630147 2.7841923 11051681
0.86570925 -0.31708473 2.7850282 10985888
0.86491883 -0.29984647 2.8308656 11051939
0.91441172 -0.33423457 2.7423 10723227
0.99030602 -0.33681285 2.7399895 10459541
0.91664755 -0.31270316 2.7997468 10854558
0.91487724 -0.3003771 2.8324499 10854815
0.97282648 -0.31970158 2.784488 10656922
0.96435642 -0.30103087 2.8336778 10722973
0.8159036 -0.272019 2.9019971 11315366
0.88143075 -0.27349231 2.9020057 11183525
0.95364583 -0.27426332 2.9042854 10920352
1.0103976 -0.36061868 2.6778281 10196368
1.0634176 -0.34553146 2.7211676 10130575
1.0212198 -0.32066271 2.7848322 10459796
1.065612 -0.32147428 2.7853348 10261906
1.0858923 -0.30407971 2.8328524 10130576
1.1341529 -0.35828418 2.6914654 9604232
1.1780064 -0.36317775 2.6810699 9341315
1.1154585 -0.32236433 2.7859554 9932941
1.138361 -0.30509785 2.8332894 9801867
1.1513029 -0.32600448 2.7784162 9670280
1.0150454 -0.27617797 2.9028716 10657177
1.1172266 -0.28626806 2.882143 9538445
1.1596688 -0.28856826 2.878566 9933197
0.83348209 -0.26319435 2.9265406 11447208
0.86972302 -0.26423433 2.9259465 11314854
0.81639308 -0.24427634 2.9758718 11578793
0.86844975 -0.24511975 2.9767497 11381159
0.85587215 -0.22512281 3.0292232 11643562
0.91573232 -0.26483217 2.9271152 11183268
0.96687371 -0.26514503 2.9293497 10920352
0.90836376 -0.24600235 2.9767942 11184037
0.91127199 -0.22575131 3.0308733 11315365
0.99426627 -0.24616095 2.9815245 10788767
0.95512962 -0.22670054 3.030977 11052195
1.0172147 -0.26650968 2.9287367 10657177
1.0930469 -0.26808056 2.9291039 10196626
1.0347544 -0.24761491 2.9800832 10460312
1.0039456 -0.22650617 3.0344229 10854813
1.0881811 -0.24961263 2.9779701 10328210
1.0662283 -0.2291151 3.0312138 10591642
0.4353202 -0.19670956 3.079628 11315359
0.42096421 -0.17568098 3.1347408 11380895
0.47163358 -0.19712277 3.0807061 11643810
0.46604827 -0.17584954 3.1369965 11840930
0.42042682 -0.15248898 3.1964407 11709089
0.41220436 -0.14156584 3.2250233 11643550
0.46605188 -0.15365995 3.1960607 11906469
0.4630138 -0.14293791 3.2244186 11906981
0.51604772 -0.19884345 3.0787902 11841189
0.51934052 -0.17784113 3.1348917 11972518
0.56468463 -0.19946064 3.0800645 11841706
0.58674622 -0.17863093 3.1368322 12104876
0.5150286 -0.15508495 3.1952055 12038568
0.51600254 -0.14414431 3.2243862 12104360
0.56635255 -0.15729596 3.192399 12104619
0.41674298 -0.11829224 3.2872453 11643035
0.4629072 -0.11931474 3.2872927 11906207
0.46581963 -0.070712976 3.4168355 11971741
0.51971567 -0.12055128 3.2874088 12169638
0.5716871 -0.12277067 3.2846186 12301994
0.52015728 -0.070813879 3.4198267 12169377
0.5632273 -0.071222045 3.4213238 12366500
0.41633865 -0.057160117 3.4499428 11643030
0.50636172 -0.058077302 3.4529011 12037790
0.61717314 -0.19923311 3.0838184 11973547
0.66480547 -0.20084244 3.082392 12104622
0.61025476 -0.15675037 3.1964841 12301743
0.61218411 -0.14619599 3.2246938 12301743
0.65638512 -0.15750277 3.1972487 12301744
0.66548121 -0.14664438 3.2266972 12302000
0.71092921 -0.20547314 3.0728326 11775915
0.72942948 -0.18126146 3.1383891 12104366
0.76616406 -0.20282228 3.0832019 11907245
0.77516919 -0.18164624 3.1401086 11973038
0.70523703 -0.15822195 3.1982648 12235950
0.71547455 -0.14731523 3.22791 12235951
0.76087558 -0.16019553 3.1963487 12104622
0.76336306 -0.14918774 3.2257981 12170159
0.61952209 -0.11068644 3.3196535 12433069
0.66570371 -0.12425304 3.2863121 12170413
0.62007934 -0.073589332 3.4184325 12432555
0.66051257 -0.08735767 3.3842089 12433326
0.66787362 -0.075366288 3.4165692 12301996
0.71512806 -0.12502778 3.2872145 12236463
0.78105175 -0.12611029 3.2882876 12236466
0.70526975 -0.088265695 3.3844764 12498349
0.72917366 -0.076036386 3.4184623 12433838
0.79000676 -0.0893398 3.3867004 12433587
0.78816032 -0.076481909 3.4208145 12565176
0.60088992 -0.059485175 3.454824 12367014
0.7010445 -0.06240255 3.4530659 12499118
0.41571659 -0.044722281 3.4830127 11576979
0.41598731 -0.030864829 3.5199146 11445135
0.46687433 -0.045693923 3.483495 11840155
0.46628252 -0.031732492 3.520622 11774101
0.51563466 -0.045518212 3.4868875 12037787
0.51585215 -0.03271345 3.5209842 12037274
0.56377804 -0.045306884 3.4903376 12300704
0.56510097 -0.032246269 3.5251818 12169116
0.42801422 0.060732208 3.7644498 8483685
0.42801422 0.060732208 3.7644498 8483685
0.41025469 0.096284263 3.8580174 9010273
0.61632538 -0.047522996 3.4875906 12498341
0.61587483 -0.034338497 3.5226583 12497827
0.66461796 -0.048437458 3.4880533 12498604
0.66631156 -0.035248071 3.5232625 12629417
0.71549046 -0.049567431 3.4880972 12564655
0.71504879 -0.036561295 3.5226908 12695468
0.76232004 -0.05022487 3.489156 12893364
0.80966061 -0.20482059 3.0804918 11841453
0.82071275 -0.18297364 3.139307 11906988
0.86330384 -0.20483801 3.0836627 11644330
0.86881793 -0.18424687 3.1388035 11775661
0.81540745 -0.1606368 3.1984451 12104369
0.81029785 -0.14920309 3.2285728 12170161
0.86978078 -0.16211373 3.1977749 11907503
0.86066324 -0.15078253 3.2273896 12039089
0.93665904 -0.20640148 3.0839012 11249574
0.90915382 -0.17450957 3.1671414 11578795
0.97293806 -0.175734 3.1677084 11511461
0.9253419 -0.1631864 3.1982527 11579053
0.93442869 -0.15156645 3.229728 12039856
0.95861286 -0.16360565 3.1991322 11052712
0.81533062 -0.11374074 3.3232687 12433588
0.87729931 -0.11626072 3.3202782 12236727
0.90618289 -0.12878732 3.2886672 12498873
0.99688423 -0.20673144 3.0866358 10986398
1.2221671 -0.45126826 2.4492388 8552059
1.237649 -0.43792611 2.4856818 8683129
1.2084653 -0.41765985 2.5378761 8815229
1.2559789 -0.42573699 2.5192263 8552314
1.2747724 -0.41089001 2.5598731 8945273
1.2151048 -0.40280381 2.5778184 8946301
1.2202014 -0.38023731 2.6381917 9077888
1.2639495 -0.40355006 2.5787618 8683385
1.2696103 -0.37641394 2.6513324 8814969
1.3262138 -0.37369496 2.6619651 7960438
1.2241472 -0.34806132 2.7240746 9209726
1.256893 -0.36539251 2.6799064 8880764
