# .PCD v0.7 - Point Cloud Data file format
VERSION 0.7
FIELDS x y z rgba
SIZE 4 4 4 4
TYPE F F F U
COUNT 1 1 1 1
WIDTH 1163
HEIGHT 1
VIEWPOINT 0 0 0 1 0 0 0
POINTS 1163
DATA ascii
-0.48490378 -0.41173455 2.4890256 8818329
-0.53457254 -0.39338413 2.5399244 8884892
-0.55585074 -0.3739602 2.5953665 8950685
-0.48376331 -0.39515856 2.5373054 8818586
-0.51007462 -0.38750717 2.5582478 8950171
-0.51240933 -0.37849504 2.5843489 8949915
-0.44226331 -0.42634013 2.4486699 8686739
-0.43030009 -0.41880405 2.4711924 8752533
-0.38411355 -0.42731068 2.4487572 8751759
-0.3918342 -0.41287971 2.4903533 8817810
-0.43160793 -0.39184463 2.5495567 8883862
-0.45501652 -0.37992427 2.5830636 9015193
-0.39593801 -0.39634201 2.5382588 8883603
-0.41821656 -0.38096491 2.5818784 8884118
-0.55150396 -0.35443762 2.6523793 8950429
-0.52577335 -0.36483851 2.623409 8950428
-0.4833276 -0.34801382 2.6744797 8949655
-0.5399648 -0.34300461 2.6862175 8950170
-0.55473912 -0.31685424 2.761554 8555670
-0.54023105 -0.30848724 2.7866211 8554898
-0.52684909 -0.32258019 2.7462921 8686996
-0.46018478 -0.3630521 2.6318889 8949656
-0.34050804 -0.43231189 2.4363906 8817292
-0.37028217 -0.42145938 2.4664721 8817296
-0.32527903 -0.20042194 3.1117623 7105378
-0.42562211 -0.16869384 3.1990418 6117449
-0.35916772 -0.18980932 3.14094 7039327
-0.39507842 -0.16813612 3.2021935 6051915
-0.2343452 -0.27433717 2.9012814 8486777
-0.16034257 -0.30117056 2.8269224 8618622
-0.16497853 -0.29247063 2.8520002 8552831
-0.18920526 -0.2748383 2.9020834 8552831
-0.22854251 -0.26685497 2.9233391 8487038
-0.23646326 -0.24855435 2.9761822 8553342
-0.18485336 -0.26619202 2.9274547 8553086
-0.17946802 -0.24945831 2.9764056 8552832
-0.26133424 -0.23961532 3.0009427 8487550
-0.22991084 -0.23925072 3.0035763 8421241
-0.18474708 -0.24020748 3.0030534 8552317
-0.32997417 -0.22719344 3.0336442 8157813
-0.33198833 -0.20910875 3.0861549 7368552
-0.25617826 -0.22090977 3.0556183 8157813
-0.28686503 -0.21106389 3.082726 7894895
-0.33028969 -0.19035096 3.1408098 7171170
-0.34663621 -0.16894348 3.20227 6643793
-0.28552529 -0.19156981 3.1395047 7565156
-0.30944103 -0.17079952 3.1987319 7104093
-0.25463873 -0.23005816 3.0290811 8289657
-0.23831022 -0.21130612 3.0844514 7960432
-0.18577376 -0.23079105 3.0303962 8355450
-0.18458033 -0.21160145 3.086282 8026222
-0.23450549 -0.19146024 3.1423771 7499622
-0.25486258 -0.1712402 3.2001824 7235679
-0.18631354 -0.19210461 3.1429152 7762536
-0.18948357 -0.17207998 3.2010114 7433312
0.059958942 -0.41768584 2.4989865 8617587
-0.0018890077 -0.39647025 2.5576103 8552056
0.0084409844 -0.37836364 2.6108029 8552056
0.065165907 -0.40989289 2.5219181 8486514
0.024925878 -0.39860719 2.5527363 8552311
0.013920084 -0.38715401 2.5855043 8617335
-0.055670589 -0.36478657 2.6470916 8552315
-0.079287872 -0.35042 2.6877046 8618107
-0.11040293 -0.33227396 2.7389369 8552830
-0.12360024 -0.31760702 2.7809453 8683902
-0.08102572 -0.33215407 2.7407563 8486780
-0.079266347 -0.31695324 2.7850664 8486780
-0.029818879 -0.36733368 2.640976 8486520
-0.035467159 -0.35496515 2.6766756 8486520
0.013888063 -0.36722225 2.6434879 8486520
0.014528315 -0.3560324 2.6760731 8552055
-0.034458689 -0.3479344 2.6971798 8420984
0.014809255 -0.34889269 2.6968579 8420726
-0.033454206 -0.33339453 2.7395291 8420729
-0.041102648 -0.31157553 2.8026216 8486521
0.014872703 -0.33460423 2.7384288 8355188
0.019905113 -0.31967607 2.7821093 8420726
0.083349846 -0.44149262 2.4308991 8814706
0.073552236 -0.42789999 2.4699519 8682866
0.12035164 -0.43606451 2.4485421 8748402
0.12423921 -0.42278606 2.4873664 8551794
0.06901858 -0.40505564 2.5361831 8552053
0.060585879 -0.39867786 2.5543153 8552053
0.080010027 -0.38705611 2.5890975 8551797
0.11979748 -0.40513414 2.5384967 8551793
0.12831981 -0.39890042 2.5570583 8617331
0.12245952 -0.38062423 2.6099339 8420721
0.18096273 -0.43850833 2.4444671 8617072
0.17950384 -0.42277843 2.4901547 8682607
0.20430318 -0.43665969 2.4510133 8747887
0.23981497 -0.42075881 2.4990494 8748141
0.18531127 -0.406243 2.5385501 8682610
0.16541855 -0.38592029 2.5966766 8617329
0.24176349 -0.40313426 2.55042 8748399
0.20238566 -0.39309877 2.5776443 8748402
0.073192485 -0.36783549 2.6446722 8486261
0.063419491 -0.35294491 2.6875026 8486007
0.1109392 -0.37166578 2.6354189 8486005
0.1151564 -0.35663745 2.6793499 8486260
0.064365059 -0.33530226 2.7388752 8486006
0.073461585 -0.32010978 2.7835286 8486261
0.12088414 -0.33545884 2.7412491 8551796
0.11954182 -0.32028493 2.7853255 8617334
0.16540073 -0.37196666 2.6372697 8551536
0.16901061 -0.35764825 2.6791053 8748657
0.20218603 -0.37170041 2.6398854 8813938
0.22107068 -0.35975277 2.6755886 8814453
0.17772828 -0.3358998 2.7428119 8683635
0.16611344 -0.32048485 2.7870753 8748917
0.22553897 -0.3378036 2.7396665 8946035
0.21514638 -0.32167858 2.7860568 8880760
-0.12882823 -0.30032921 2.8309479 8552572
-0.13021052 -0.29221594 2.8544817 8552573
-0.1338596 -0.2753776 2.9032848 8552572
-0.084401965 -0.30038697 2.8330038 8486779
-0.085081436 -0.29237187 2.8562868 8552315
-0.083444253 -0.27640486 2.9028201 8486523
-0.13392155 -0.26721126 2.9270389 8552571
-0.13569447 -0.24990922 2.9772851 8486779
-0.080558896 -0.26809275 2.9271457 8420985
-0.090321615 -0.24989331 2.9796026 8355193
-0.034226429 -0.30238175 2.8297122 8420984
-0.032328613 -0.29409423 2.8539171 8420985
-0.039103888 -0.27711523 2.9029727 8355448
0.015341249 -0.30265713 2.8313918 8486006
0.015282559 -0.29426941 2.8557904 8486262
0.0090289833 -0.27791759 2.903048 8420982
-0.028077574 -0.26882055 2.9276555 8420982
-0.04942042 -0.24990648 2.9816115 8223603
0.01178928 -0.2691704 2.9286332 8486261
0.010135371 -0.25184613 2.97895 8354673
-0.13889748 -0.24065125 3.0040576 8421497
-0.096960321 -0.24093877 3.0053203 8289656
-0.051065631 -0.24078673 3.00806 8223346
-0.015577937 -0.24247921 3.0049129 8223088
-0.13448696 -0.23160838 3.030586 8355449
-0.13072346 -0.2130072 3.0848882 8223604
-0.086705506 -0.23104635 3.0346127 8223605
-0.074871004 -0.21325968 3.0869496 8223089
-0.13298628 -0.1929252 3.1431971 7959400
-0.13435093 -0.17310174 3.2007987 7564897
-0.084491931 -0.19291303 3.1456604 7893606
-0.084542327 -0.17352147 3.202071 7630432
-0.030920031 -0.23215877 3.0341687 8091759
-0.015002236 -0.21501295 3.0848455 8157292
0.023925059 -0.23318189 3.0339377 8090988
0.021314368 -0.21528542 3.085871 8024679
-0.034152877 -0.19443639 3.143748 7894372
-0.039321885 -0.17399094 3.2029691 7564894
0.015244956 -0.19516736 3.1440945 7696482
0.015762672 -0.17523338 3.2021115 7499103
0.068503298 -0.30304846 2.8329144 8486261
0.060512207 -0.29497427 2.8560038 8420726
0.066348419 -0.2794013 2.9016006 8486519
0.10954452 -0.30362529 2.8332908 8617334
0.099762172 -0.29553413 2.8563399 8552055
0.11746589 -0.27942657 2.9040861 8552050
0.067127027 -0.27050424 2.9275227 8551798
0.06931188 -0.25271323 2.9793897 8354926
0.11868395 -0.27049708 2.9301243 8617586
0.12072374 -0.253187 2.9805846 8551532
0.15415907 -0.30426809 2.8336542 8683636
0.16009557 -0.29637426 2.8569162 8749175
0.15856685 -0.28008401 2.9042308 8748919
0.20707452 -0.30540335 2.8330004 8946555
0.24825619 -0.29856133 2.8549666 8881019
0.20503142 -0.28090236 2.9041762 8880761
0.16960825 -0.27193862 2.9284799 8683638
0.16905838 -0.2540997 2.9803491 8551793
0.21399416 -0.26602653 2.9479005 8552309
0.22983238 -0.25498629 2.9808118 8158320
0.029252982 -0.24305753 3.0054743 8223342
0.10450068 -0.24426892 3.0057168 8288873
0.16422871 -0.24449325 3.008054 8354667
0.22514144 -0.24593779 3.0069005 7566442
0.063488349 -0.23391132 3.0337961 8091494
0.059468873 -0.21580088 3.0862813 7827807
0.11521488 -0.23505695 3.0330524 8157031
0.10456983 -0.21605094 3.0878115 7696220
0.0612152 -0.19560373 3.1451259 7169625
0.060775284 -0.17565154 3.2031484 6709335
0.12775019 -0.19653884 3.1457365 6380108
0.11859833 -0.17630623 3.2041383 5525316
0.1752684 -0.23554432 3.0346408 7960426
0.15544854 -0.21698666 3.0876362 7565409
0.20593256 -0.23059885 3.0505629 6710368
0.23425448 -0.21774757 3.0893674 6578525
0.12470216 -0.20660618 3.1162958 7169366
0.17471215 -0.19442897 3.1542246 5196870
0.13372295 -0.18483669 3.1800785 5525056
0.18703312 -0.20527031 3.1233022 5460044
0.23487541 -0.18354528 3.1888988 8025959
-0.46609455 -0.135028 3.2949567 5326387
-0.51478189 -0.12198629 3.3304601 1447182
-0.54004693 -0.11069383 3.3620467 525315
-0.52579147 -0.095797993 3.406095 656385
-0.46087286 -0.1221293 3.3327422 1774861
-0.47463205 -0.10959314 3.3685231 985605
-0.46047038 -0.097261705 3.405107 590592
-0.41315195 -0.15788105 3.231123 5920071
-0.37936279 -0.15820102 3.2318833 6117451
-0.42523751 -0.14740635 3.2609906 5985864
-0.43146166 -0.13607803 3.2936354 6839624
-0.34739187 -0.14871383 3.2610831 6380362
-0.38512895 -0.13751325 3.2917793 6116930
-0.47769189 -0.12353765 3.3278034 4733740
-0.42096359 -0.10225168 3.3925676 4406063
-0.36807647 -0.12653168 3.3245802 6379585
-0.38915706 -0.10112366 3.3974414 2629136
-0.43440118 -0.088356338 3.4323189 525056
-0.4203237 -0.078039147 3.463038 459264
-0.3640469 -0.089687072 3.4319692 2235152
-0.36370718 -0.077213712 3.4682734 393984
-0.33462229 -0.15918946 3.2312474 6578254
-0.28517303 -0.16043036 3.2301128 7038298
-0.33143678 -0.13857535 3.2913773 6380361
-0.28968057 -0.13939255 3.2910898 6709074
-0.36132869 -0.11504399 3.3583376 5852986
-0.35284376 -0.10300756 3.3937786 4734767
-0.26413625 -0.11766121 3.3555887 6643534
-0.30075854 -0.10496185 3.3907001 6971207
-0.23527555 -0.1608582 3.2313657 7038301
-0.18125862 -0.16113704 3.2332587 7169884
-0.23424183 -0.1398963 3.2923996 6972762
-0.18501602 -0.14038886 3.2934308 7038554
-0.25391546 -0.1287905 3.3237236 6840915
-0.23526786 -0.10621279 3.3903394 7102795
-0.17514263 -0.12948383 3.3256493 7169879
-0.18555979 -0.10669434 3.3914268 7170134
-0.32010084 -0.080772817 3.4601026 4668971
-0.3394269 -0.065107509 3.5047081 1050883
-0.28128639 -0.080398254 3.4631348 3616538
-0.28859502 -0.065135531 3.5071709 656386
-0.26886517 -0.054672554 3.5385969 459520
-0.2273144 -0.081607148 3.4623196 5524275
-0.24111775 -0.069015093 3.4982612 4010781
-0.18277113 -0.081757158 3.4641125 5918003
-0.17486736 -0.069745265 3.4994533 4800296
-0.22486234 -0.05287097 3.546041 722176
-0.18983138 -0.057254761 3.5350413 2891282
-0.2136811 -0.043491349 3.5738878 459264
-0.17863649 -0.042775843 3.577724 459264
-0.16132249 -0.029484937 3.6172562 459264
-0.13446285 -0.16265619 3.2311814 7367515
-0.085404888 -0.16239454 3.2343979 7301723
-0.084579848 -0.14179175 3.2943769 7235671
-0.1350649 -0.141239 3.2934575 7104344
-0.12534416 -0.13042341 3.3254087 7104343
-0.13396655 -0.10719434 3.3925545 7367257
-0.074681818 -0.13084447 3.3267198 7169621
-0.084108762 -0.10802455 3.3926351 7169368
-0.039421756 -0.16359875 3.2331967 7367515
-0.038473185 -0.14266424 3.2941468 7169877
0.019759122 -0.16498561 3.232125 7235932
0.026039468 -0.14398643 3.293529 6776149
-0.0018445681 -0.13274711 3.3248303 6972758
-0.030448943 -0.10868366 3.3934038 6446411
-0.014370402 -0.12102289 3.3583119 6643794
0.03903522 -0.1071595 3.4013157 4472113
-0.14161156 -0.082970582 3.4626431 7365713
-0.11514448 -0.071073785 3.4985778 6641989
-0.081963114 -0.083959073 3.4627531 6512717
-0.081746005 -0.070430264 3.5021214 4999230
-0.12860456 -0.058485787 3.5345252 4471849
-0.085351005 -0.057001121 3.5410097 1907474
-0.028355353 -0.084326424 3.4643681 4011821
-0.034080502 -0.070529163 3.5042202 3287840
-0.010750762 -0.095642619 3.4323285 4670004
0.034505837 -0.081515707 3.4756918 4734768
-0.044166785 -0.056928169 3.543283 3879204
-0.0056341151 -0.057065785 3.5448115 5130295
0.068719044 -0.16543368 3.2332716 6315602
0.02935379 -0.15438148 3.263454 6841943
0.13484307 -0.16764258 3.2301557 4801334
0.096373446 -0.15227039 3.2729504 4472886
0.080648184 -0.140889 3.305274 4670009
0.063550025 -0.13021466 3.3354712 4407094
0.054744918 -0.11905606 3.3674932 4406322
0.17347287 -0.16192876 3.2487118 5325090
0.20817961 -0.1630428 3.2472081 6117969
0.21448036 -0.15318236 3.2762089 6577733
0.20781374 -0.14157812 3.3096344 6577217
0.22243381 -0.13297474 3.3353949 8550754
0.23435938 -0.11096772 3.4000144 10195321
0.063760355 -0.09364222 3.4418774 5261370
0.049716581 -0.070230387 3.5092838 5524277
0.060336735 -0.059082709 3.5422459 5854524
0.064461835 -0.047353473 3.5765755 6774596
-0.12810467 -0.043593571 3.5778742 920324
-0.092452712 -0.042788461 3.5820012 657156
-0.056125551 -0.042777952 3.5838499 4274722
-0.0093024392 -0.043796021 3.5832322 5130812
0.049577843 -0.033630203 3.6157537 5458747
-0.13061018 -0.030682286 3.6153102 131072
-0.039690219 -0.029381324 3.6236458 5063717
0.031437971 -0.018485509 3.6589041 788228
0.027133361 -0.0056726914 3.6959634 854531
0.049461454 -0.019611429 3.6565304 3090465
0.079354741 -0.019484386 3.6583967 6576448
0.33053505 -0.4454709 2.4316988 8879470
0.41632944 -0.44828647 2.4278021 8944750
0.45240751 -0.44427308 2.4412839 9010801
0.53584909 -0.45007193 2.4285908 7103579
0.56968689 -0.45039237 2.4293523 8287851
0.62897807 -0.45537603 2.4178221 6709080
0.66834366 -0.45329165 2.4258561 8158590
0.73653549 -0.45329767 2.4292521 8025974
0.82555497 -0.45131817 2.439467 9407364
0.87207884 -0.46078551 2.4142535 9406595
0.92256254 -0.45527789 2.4328034 9538437
0.96945572 -0.45206475 2.4444981 9538436
1.0143197 -0.45270514 2.4448805 9472645
0.24499895 -0.43784657 2.4495976 8747887
0.28476679 -0.42956448 2.475682 8813936
0.31496078 -0.43725899 2.454809 8879471
0.3049542 -0.42159259 2.4998846 8945007
0.27031553 -0.40835923 2.5366488 8814192
0.26878804 -0.39141235 2.5858741 8879730
0.31516257 -0.40886107 2.5374336 8945266
0.32160661 -0.39039442 2.5914795 8945781
0.36729988 -0.4406665 2.4475162 9010543
0.36456239 -0.42316794 2.4982851 9076336
0.41037431 -0.43945238 2.4532039 8945265
0.40521273 -0.41957816 2.5107636 9011058
0.35898033 -0.40541312 2.5496576 9076593
0.3628484 -0.39342111 2.5847385 9011317
0.41482541 -0.40749803 2.5463879 8945780
0.41759351 -0.3913061 2.5936317 8880245
0.2692495 -0.37126642 2.6445053 8945782
0.25912347 -0.3602142 2.6761513 9011318
0.32401544 -0.37224248 2.6444068 8946295
0.31011295 -0.36099887 2.6764209 9142905
0.27182651 -0.33866122 2.7394884 9077626
0.26411167 -0.32296604 2.7847624 8946555
0.31043145 -0.33913723 2.7400365 9012092
0.31334135 -0.32327574 2.7863255 8946299
0.36763239 -0.37158102 2.6485147 8880761
0.36477479 -0.3616538 2.6772518 8880761
0.41340664 -0.37339926 2.6455164 8814966
0.43179202 -0.36597985 2.6680212 8420977
0.42197618 -0.33932939 2.7450604 6578526
0.37244436 -0.33974648 2.7413678 8552308
0.3522107 -0.32389969 2.7864561 8486775
0.39863062 -0.32687217 2.7801321 7302503
0.46952444 -0.43450728 2.4705515 8418400
0.46556559 -0.42535597 2.4969757 8682864
0.50029534 -0.44626009 2.4379005 8485742
0.51340812 -0.43078071 2.4835896 8419951
0.47931767 -0.41371036 2.5315435 8486002
0.47263855 -0.39619708 2.5821583 8617332
0.5195542 -0.4116708 2.5394907 7104351
0.52037781 -0.38734421 2.6103027 6511439
0.56338096 -0.44210458 2.4531474 8025193
0.55658478 -0.43595019 2.4707115 6906966
0.61592627 -0.43982181 2.4624188 5985360
0.63637799 -0.42349204 2.5109487 7370611
0.57335979 -0.4144125 2.5342076 6512216
0.55008262 -0.3966777 2.5846362 7629926
0.61779428 -0.4218829 2.5146997 9212311
0.62565368 -0.39564323 2.5914285 10461089
0.46872824 -0.38219056 2.6227102 8223087
0.47386548 -0.35812965 2.6929646 7499882
0.51819026 -0.37466988 2.6470647 7696749
0.53336298 -0.363841 2.6793277 8618625
0.45928925 -0.34815246 2.7212603 6315097
0.4697465 -0.33310106 2.7655714 8618623
0.46928677 -0.32115832 2.8002918 9079171
0.51635385 -0.33913913 2.7503381 9868949
0.52767962 -0.32565156 2.7901433 9802124
0.58504927 -0.37495822 2.6495728 13088669
0.5678398 -0.36052695 2.6906948 10394781
0.61407328 -0.37529621 2.6500425 10065811
0.60591269 -0.36224732 2.6875954 13810334
0.61090493 -0.34872892 2.7271726 14203783
0.56370056 -0.34615272 2.7323046 10000018
0.57940602 -0.32649156 2.7902884 11182752
0.61491668 -0.34227026 2.7461631 12561287
0.62009555 -0.32770622 2.7887917 14204298
0.26820013 -0.30759144 2.8296945 8946555
0.27049226 -0.28250974 2.9027765 8683897
0.32299969 -0.30775917 2.8319495 8420983
0.34142712 -0.28007829 2.9134007 7236968
0.27065524 -0.27379924 2.9281251 8355442
0.27893743 -0.25385091 2.986573 6052186
0.31639141 -0.26679754 2.9507835 6710369
0.31312779 -0.25140229 2.9954076 8289654
0.37227303 -0.31036314 2.8268411 7039332
0.35323536 -0.29577166 2.8683372 7367785
0.35762566 -0.28787521 2.8915291 7038562
0.41342729 -0.31214082 2.8237293 8289907
0.41592097 -0.28783751 2.8945565 9276550
0.35405728 -0.27018434 2.9428165 8026987
0.38493672 -0.25323987 2.9936564 9801601
0.39475885 -0.27061892 2.9435894 9736330
0.43318936 -0.25608331 2.9878001 10920338
0.29098198 -0.24366291 3.0168145 7105383
0.26549715 -0.23464188 3.0417829 6578781
0.26247224 -0.2234477 3.0741973 7434341
0.31331715 -0.23309754 3.0486691 8683898
0.31477743 -0.22392821 3.0754173 9406589
0.25598156 -0.20402476 3.1303768 7697002
0.25902683 -0.19443598 3.1584249 8421226
0.27437541 -0.18571351 3.1845684 8683631
0.32273793 -0.19702084 3.1540942 10787721
0.36917305 -0.19048846 3.1754224 11117205
0.37642896 -0.23609433 3.0431099 9867906
0.39034504 -0.21960352 3.0917811 10657677
0.40853357 -0.23771375 3.0400057 11117720
0.43476373 -0.22136119 3.0888915 11315359
0.38113099 -0.20090948 3.1457043 11052178
0.37037754 -0.18048134 3.2045951 11314584
0.42037103 -0.20195901 3.1446157 11380895
0.4197942 -0.18051459 3.2069721 11709089
0.4618021 -0.30585063 2.8444502 9605517
0.47994363 -0.29107064 2.8883557 10131345
0.53604221 -0.3094793 2.83761 10723224
0.5099678 -0.28597075 2.9046953 10789274
0.48419151 -0.27536434 2.9342608 10920855
0.46577987 -0.25888839 2.9812706 10393994
0.52425969 -0.2775206 2.9299936 11052189
0.50950325 -0.2599912 2.9802508 11183775
0.59071732 -0.28645566 2.9073265 8354936
0.60364199 -0.30642402 2.8498821 8749434
0.60104406 -0.29518199 2.882457 8091507
0.57816529 -0.2781916 2.9307396 6710369
0.56741518 -0.25997117 2.9832082 11578277
0.62791747 -0.27837303 2.9327023 11841450
0.61750239 -0.26087299 2.9830921 6907747
0.47589329 -0.24084231 3.034276 11381151
0.4710803 -0.22163361 3.0899167 11643810
0.51012331 -0.23227699 3.0609074 11644067
0.51550037 -0.22309056 3.0879018 11841189
0.46545845 -0.20197864 3.1468153 11840930
0.46542436 -0.18145941 3.2065072 11906469
0.5187577 -0.2036594 3.1445937 11972518
0.51440686 -0.18262926 3.2055562 12038568
0.55031604 -0.2424068 3.0334504 11709861
0.56414163 -0.22351439 3.0891035 11841706
0.63363552 -0.2432835 3.0350704 11513258
0.61663336 -0.22314541 3.0928044 11973547
0.58616936 -0.20418625 3.1464355 12104876
0.56573802 -0.18451872 3.2026289 12104619
0.5786193 -0.21375738 3.1182132 11973034
0.60964227 -0.18388177 3.2066793 12301743
0.6544385 -0.44364223 2.4532323 8619662
0.64898509 -0.43499202 2.4781246 8684930
0.7265079 -0.44232821 2.4606624 8749957
0.72369999 -0.43176246 2.4912598 9276295
0.65202385 -0.41514087 2.536027 10264741
0.66897291 -0.39612344 2.5922005 9934231
0.64374971 -0.38928705 2.6108263 10197401
0.68887967 -0.41786632 2.529943 9802641
0.7410804 -0.40880978 2.5589027 9933967
0.71061248 -0.39572331 2.5954487 10065297
0.77785504 -0.44295695 2.4614038 9209984
0.78583497 -0.43010342 2.4991961 9605000
0.82425326 -0.42751426 2.5086517 9932940
0.76591223 -0.41849896 2.5319583 9736074
0.76861066 -0.40166575 2.5810642 10196881
0.76481932 -0.39583394 2.5978403 10065297
0.82996762 -0.41134429 2.555979 10130832
0.79973358 -0.40244335 2.5803599 10261650
0.81497014 -0.39647731 2.598479 10327955
0.67545456 -0.37950039 2.6408842 10196374
0.6744585 -0.36660957 2.6783359 10196632
0.7097345 -0.38049644 2.6397023 10262677
0.72382164 -0.36762574 2.6778507 10460311
0.65457386 -0.35324433 2.7162223 10854040
0.71389818 -0.34921607 2.730911 10723485
0.66011751 -0.32805654 2.7897758 11249313
0.71265596 -0.32969034 2.787653 10986402
0.75437933 -0.38214913 2.6371291 10328469
0.77074558 -0.3685216 2.6775932 10591128
0.81012917 -0.38209569 2.6400754 10525335
0.8146472 -0.36851031 2.6798239 10657178
0.76922125 -0.35341722 2.7214584 10723229
0.82729083 -0.35366833 2.723635 10723228
0.76639891 -0.34578049 2.7435338 10854815
0.7645995 -0.33096045 2.7865579 10920864
0.81092763 -0.34589657 2.745425 10920351
0.81668729 -0.3307974 2.7896395 11051681
0.8680672 -0.44862968 2.4494159 9538695
0.86557865 -0.43595219 2.4861727 9801611
0.91614896 -0.43712744 2.485285 9801610
0.86427385 -0.41681653 2.5417764 10065037
0.85899866 -0.4037469 2.5795343 10327953
0.86502534 -0.39750591 2.5979924 10262418
0.90970927 -0.42263415 2.5271266 9998733
0.9147529 -0.40492263 2.5789049 10196111
0.95007598 -0.39869249 2.5987976 10130575
0.97335041 -0.43326378 2.4993887 9801353
1.0151917 -0.43795177 2.4878449 9604487
0.96335435 -0.42236263 2.5306015 9867404
0.96936858 -0.40572667 2.5792997 10064525
1.0114458 -0.41772389 2.5465038 9867402
1.0203195 -0.40594727 2.5812082 9867659
0.85501355 -0.38261661 2.6408067 10459541
0.86650217 -0.36893314 2.68119 10526103
0.88609737 -0.38014063 2.6495659 10459797
0.93287015 -0.37532684 2.6659112 10459541
0.88323051 -0.35916606 2.7104406 10657434
0.93262172 -0.35526669 2.7242572 10656664
0.86565793 -0.34658629 2.7461584 10854558
0.86538666 -0.33137456 2.7903981 10985888
0.91412163 -0.34708631 2.7471294 10723227
0.91632104 -0.32716891 2.8051827 10854558
0.9647724 -0.3853541 2.6383369 10196625
0.94971538 -0.370386 2.681128 10524821
1.0143799 -0.38589144 2.639257 10064783
1.0101588 -0.3711943 2.6818023 10196368
0.99002546 -0.34924126 2.7446599 10459541
1.0010879 -0.35991293 2.7141676 10327956
0.9725157 -0.33347091 2.7896621 10656922
1.020914 -0.33421353 2.7899244 10459796
0.64055669 -0.31188416 2.835845 1447442
0.68860722 -0.28791112 2.9079921 9406851
0.70103401 -0.31369361 2.8336084 10986398
0.71297973 -0.2965751 2.8840072 11446437
0.64357543 -0.27077815 2.9555814 6710623
0.669963 -0.26334345 2.9785306 5263182
0.7008605 -0.27976885 2.9322934 9604488
0.71347255 -0.26236549 2.9835541 11052449
0.76999694 -0.31529546 2.8324003 11249058
0.76376897 -0.29881221 2.8800411 11315620
0.75988024 -0.28960651 2.9066274 11512486
0.813308 -0.32067147 2.8189282 11117730
0.81388897 -0.29875556 2.882715 11380902
0.81550103 -0.28985187 2.9086983 11315366
0.77148718 -0.28099293 2.9322677 11578280
0.76478833 -0.26465058 2.9794745 11710120
0.83306575 -0.28163859 2.9334714 11447208
0.81594342 -0.26419616 2.9833574 11578793
0.64586586 -0.23420873 3.0620823 11381412
0.66427165 -0.22448976 3.0912781 12104622
0.71404785 -0.24449161 3.0355809 8288631
0.71040642 -0.22863258 3.0815353 11775915
0.69960606 -0.21498208 3.1207066 12104365
0.6557771 -0.18443815 3.2073705 12301744
0.72886682 -0.20618755 3.1477559 12104366
0.70463353 -0.18495549 3.2083108 12235950
0.77931768 -0.23789753 3.0580313 11841195
0.76564056 -0.22601442 3.091917 11907245
0.79362077 -0.24684687 3.032712 11709866
0.80914342 -0.22773091 3.0891008 11841453
0.77461034 -0.20640531 3.1494124 11973038
0.7602793 -0.18661258 3.2062757 12104622
0.8201592 -0.20749518 3.1485217 11906988
0.81481564 -0.18685572 3.2082977 12104369
0.86456692 -0.31543636 2.836724 11051939
0.86028111 -0.299505 2.8828566 11117989
0.88103521 -0.29101634 2.9085908 11183525
0.91452962 -0.3157762 2.8382366 10854815
0.91040105 -0.29938608 2.8857119 11051682
0.86931098 -0.2824907 2.9328067 11314854
0.86800504 -0.26481876 2.9841521 11381159
0.91532439 -0.28290439 2.9339063 11183268
0.90792334 -0.26551449 2.9841266 11184037
0.96401328 -0.31623125 2.8393896 10722973
0.97025841 -0.30042583 2.8856831 10788767
0.95325649 -0.29151115 2.9107668 10920352
1.0269754 -0.32368618 2.8208537 10459542
1.0229834 -0.30229804 2.8828759 10591384
1.0146635 -0.29309621 2.9092293 10657177
0.96646976 -0.2830393 2.936074 10920352
0.9494549 -0.26528695 2.986867 10986402
1.0168164 -0.28414914 2.9353654 10657177
0.99383199 -0.26540166 2.988755 10788767
1.0034785 -0.24719712 3.0421982 10854813
0.85539263 -0.24636523 3.0372057 11643562
0.86279041 -0.22758488 3.0922108 11644330
0.9107973 -0.24677907 3.038775 11315365
0.89422846 -0.22808781 3.0923219 11512487
0.8682698 -0.20852721 3.1479278 11775661
0.84367067 -0.19796756 3.1774163 11907247
0.86919516 -0.18805741 3.2075241 11907503
0.91160125 -0.20930748 3.1478269 11513257
0.90859193 -0.19940118 3.1764953 11578795
0.92476189 -0.1888814 3.2079084 11579053
0.95465958 -0.24752437 3.0388024 11052195
0.93615323 -0.22880931 3.0923216 11249574
0.98998606 -0.22890851 3.0947275 10986399
0.96009809 -0.20957567 3.1494741 11315364
0.95399964 -0.20005785 3.1768579 11315366
0.95803583 -0.18916866 3.2087383 11052712
0.28334758 -0.16719913 3.2388792 9867644
0.30466831 -0.15808307 3.2664669 10459271
0.31950167 -0.16918027 3.2349255 10591371
0.31919277 -0.14845084 3.2952154 10919565
0.26914036 -0.14657243 3.2981749 10392959
0.26490188 -0.13573043 3.3295038 10590853
0.27040538 -0.11356914 3.3942506 10721158
0.3144432 -0.13701768 3.3282387 10919308
0.31907955 -0.11443625 3.3941648 11116429
0.36984003 -0.17041557 3.2338517 11314584
0.36472875 -0.14870574 3.2967536 11248532
0.41155261 -0.17043845 3.235873 11643550
0.41605201 -0.14890316 3.2987483 11643035
0.37045226 -0.13701504 3.3310504 11314324
0.36115798 -0.11508368 3.3943875 11248530
0.42435804 -0.13791661 3.3311257 11708827
0.41553241 -0.11585111 3.3948767 11577496
0.25545037 -0.1004356 3.43171 10260858
0.25432059 -0.088993661 3.4649398 10457982
0.2648752 -0.077881627 3.4977953 10326394
0.31525454 -0.10204948 3.4300084 10984584
0.32093424 -0.090356052 3.4643106 10984328
0.31488207 -0.078751229 3.4977684 10852740
0.26031712 -0.065165319 3.5345612 9997172
0.25990474 -0.052462958 3.5714939 9931119
0.31546855 -0.066320002 3.5339622 10786943
0.31499395 -0.053537082 3.5711269 10655100
0.3643119 -0.1028998 3.4299905 11314063
0.36503235 -0.091211364 3.46403 11313804
0.36187428 -0.079604149 3.4976394 11116682
0.41401264 -0.10404626 3.4291427 11577495
0.41554376 -0.09237422 3.4631755 11643030
0.41490051 -0.080874428 3.496598 11576979
0.3652119 -0.0671729 3.5339715 11116168
0.36879167 -0.053972922 3.5725515 11049857
0.41514772 -0.068059556 3.5338917 11445135
0.41845959 -0.055040888 3.5719309 11379338
0.46236786 -0.1715537 3.235172 11906981
0.46222112 -0.14970921 3.2987144 11906207
0.51536226 -0.17250918 3.2350452 12104360
0.51903558 -0.15068111 3.2987309 12169638
0.4782691 -0.13851981 3.3320694 11906207
0.46619067 -0.11634579 3.3959737 11906207
0.52120268 -0.13924049 3.3321223 12235171
0.51577038 -0.11662582 3.3976402 12169378
0.56204247 -0.17408742 3.2327907 12235944
0.57101429 -0.15257642 3.295819 12301994
0.61155385 -0.17411605 3.2351856 12301743
0.61182564 -0.15359025 3.2949128 12301998
0.57018816 -0.14010148 3.3320694 12235944
0.56503391 -0.11745739 3.3976872 12301221
0.61883199 -0.14125741 3.3311415 12433069
0.6151132 -0.11844846 3.3973107 12301481
0.46505114 -0.10475743 3.4296288 11971741
0.50557452 -0.092950463 3.4660058 12037790
0.46606341 -0.081618473 3.4969947 11840155
0.51939267 -0.10468652 3.4325554 12169377
0.51482677 -0.081308775 3.5003369 12037787
0.46544781 -0.068709888 3.5345173 11774101
0.4651525 -0.055361863 3.5733342 11576717
0.51502252 -0.069467269 3.5347955 12037274
0.51823193 -0.056104381 3.5738316 11905430
0.56246632 -0.10493369 3.4339921 12366500
0.56297302 -0.080967918 3.5037384 12300704
0.61932623 -0.10695122 3.4309692 12432555
0.60011154 -0.093966737 3.4677815 12367014
0.61552775 -0.082858369 3.500869 12498341
0.56427389 -0.068886399 3.5389504 12169116
0.56538355 -0.056484651 3.5750854 12168603
0.61505479 -0.070667811 3.5363102 12497827
0.61881256 -0.058329064 3.5723944 12432033
0.26951861 -0.040100694 3.6079395 10325108
0.32551154 -0.040597763 3.6092956 10654583
0.36964402 -0.040730022 3.6111202 10852474
0.41532704 -0.042470932 3.6083429 11247495
0.46555763 -0.042339902 3.6112378 11444874
0.51428741 -0.042754974 3.6124699 11773583
0.56151408 -0.043217577 3.613488 12036757
0.61486572 -0.04547447 3.6095924 12365726
0.2578252 -0.026165618 3.6478932 9272927
0.26582953 -0.012077634 3.6892784 9338458
0.31544113 -0.027590422 3.6466324 10457201
0.31069556 -0.014401068 3.6847653 10325097
0.2621679 0.003460034 3.7342973 9075030
0.2515454 0.016628586 3.7720752 8286035
0.30669856 0.0017654567 3.7315965 9864030
0.33034948 0.01687461 3.776736 9535582
0.36531737 -0.027884185 3.6482742 10720375
0.36603197 -0.014858467 3.6862047 10588786
0.41539559 -0.029568478 3.6458814 11115906
0.41465852 -0.016222386 3.6846702 10983805
0.36475539 -0.001057275 3.7262909 10325606
0.3674165 0.029800275 3.8161936 9732701
0.42031047 -0.0024461728 3.7250309 10851701
0.43032166 0.011500135 3.7661049 10851183
0.42018545 0.025514537 3.8063674 10455910
0.38005215 0.048017167 3.8698225 9075035
0.40764681 0.042826016 3.856102 10258273
0.39404687 0.063171536 3.9146099 9798246
0.46551809 -0.029358402 3.6490014 11378821
0.46630183 -0.016127801 3.687531 11246974
0.51539433 -0.029652154 3.6506436 11707532
0.51480889 -0.016669033 3.6883843 11509896
0.46972966 -0.0025343276 3.7272482 11245945
0.47022748 0.025922861 3.8100603 10587498
0.51452029 -0.0030852919 3.7278874 11378047
0.53475296 0.026065756 3.8137054 10719860
0.54923785 -0.029529955 3.6526928 11839114
0.56096333 -0.016757924 3.6904361 11707527
0.59585726 -0.031592898 3.6490252 12168343
0.60299015 -0.017695377 3.6898129 11904914
0.56599677 -0.0032320879 3.7300375 11707009
0.54308546 0.011335744 3.7712708 11377788
0.60528278 -0.0033333832 3.731709 11510159
0.60052091 0.011141926 3.773582 10390926
0.45380694 0.043345653 3.8599246 10324325
0.49649993 0.040968854 3.8551471 10258279
0.50016403 0.056130126 3.899437 10982505
0.53554422 0.040592499 3.8560064 10719346
0.66485536 -0.17436965 3.2371159 12302000
0.66503984 -0.15366328 3.297364 12170413
0.71485323 -0.17483902 3.2382531 12235951
0.71446884 -0.15423028 3.2981884 12236463
0.66551679 -0.14208043 3.331084 12367534
0.65978563 -0.11956095 3.3963103 12433326
0.7184369 -0.14238274 3.3328536 12367536
0.70454741 -0.12026548 3.3965013 12498349
0.76274818 -0.17642602 3.2360339 12170159
0.78039891 -0.1550321 3.299156 12236466
0.80968624 -0.17629835 3.2387547 12170161
0.80136818 -0.16577998 3.2689383 12301747
0.76767337 -0.14329907 3.3326526 12302258
0.75001687 -0.12089697 3.3969402 12368049
0.81465906 -0.14349036 3.3344479 12433588
0.78929198 -0.12100278 3.3985987 12433587
0.66712683 -0.10845005 3.4290016 12301996
0.70027798 -0.096361764 3.4658272 12499118
0.66382515 -0.083558291 3.501251 12498604
0.69088936 -0.10876802 3.4292657 12433326
0.71470302 -0.084449403 3.5012052 12564655
0.66549647 -0.071356595 3.5368314 12629417
0.66464645 -0.058566995 3.5739961 12629413
0.7142393 -0.072423592 3.5361671 12695468
0.71246284 -0.05919699 3.5745571 12893101
0.72843218 -0.10888463 3.4308059 12433838
0.75193691 -0.084200256 3.5037937 12696758
0.78037417 -0.1093853 3.4319494 12565173
0.74910164 -0.072741479 3.5369873 13025460
0.86005771 -0.17760679 3.2374697 12039089
0.85698879 -0.15563114 3.3012474 12302006
0.91424322 -0.17809892 3.2387502 11973298
0.89023322 -0.16726714 3.2690599 12236211
0.87662506 -0.1461135 3.3299186 12236468
0.66634536 -0.045550842 3.6119475 12497825
0.7162528 -0.047235511 3.6095448 12892850
0.64873421 -0.032753035 3.6482968 12431772
0.64496589 -0.019948801 3.6853585 12497052
0.64163291 -0.00643908 3.7244935 12365208
1.0248075 -0.54842126 2.1669505 7565675
1.0642985 -0.54413831 2.1813869 7894384
1.0583844 -0.52958077 2.2234418 8091765
1.0709091 -0.511491 2.276695 8223605
1.0940754 -0.52672809 2.2335269 8026226
1.1123694 -0.51114583 2.2797742 8157813
1.065207 -0.48871371 2.3426728 8617851
1.0821624 -0.47854048 2.3731172 8683900
1.1075479 -0.49226844 2.334451 8486520
1.1011112 -0.46738526 2.4065185 8814972
1.1449779 -0.49292213 2.3344231 8420471
1.154834 -0.47942102 2.374193 8486265
1.1823679 -0.46865544 2.4068906 8552058
1.0637071 -0.45388415 2.4439232 9340802
1.1266954 -0.45236152 2.4515059 8946815
1.1587975 -0.45941827 2.4325838 8683643
1.1997222 -0.45718187 2.4411378 8552314
1.1874074 -0.43774253 2.4970739 8815229
1.0601916 -0.4358117 2.4963233 9472902
1.1144274 -0.43513304 2.5010123 9275521
1.0631173 -0.42276722 2.5344186 9669766
1.0632714 -0.40967685 2.5725079 9735562
1.1147245 -0.42416182 2.5329444 9406852
1.1068826 -0.41101214 2.570807 9538438
1.1465006 -0.43731344 2.4962745 9078144
1.1668419 -0.42530707 2.5322213 9078145
1.1600475 -0.41216999 2.5700996 9209985
1.2083371 -0.42334327 2.5400119 8815229
1.2149518 -0.40958539 2.5803668 8946301
1.0645643 -0.38602591 2.6413777 9932940
1.0547723 -0.37312222 2.6784267 9999246
1.1113088 -0.38325399 2.6517816 9670025
1.1339186 -0.36866167 2.695365 9604232
1.0631568 -0.35708266 2.7255085 10130575
1.1159829 -0.35840359 2.7243099 9736075
1.0653105 -0.33482996 2.7903535 10261906
1.1151619 -0.33550236 2.7908924 9932941
1.1715958 -0.38345402 2.6542175 9341060
1.1777834 -0.3730545 2.6847813 9341315
1.2200103 -0.38870239 2.6413727 9077888
1.2209013 -0.37714791 2.6750312 9077887
1.1672738 -0.3582274 2.7273898 9538181
1.2239017 -0.35893667 2.7281613 9209726
1.151015 -0.3387602 2.7832096 9670280
1.2110194 -0.34377307 2.7716298 9275523
1.2315261 -0.43978706 2.4933348 8617593
1.2507262 -0.42318714 2.542588 8683385
1.263801 -0.41012803 2.5812335 8683385
1.2694161 -0.3850176 2.6545656 8814969
1.2566793 -0.37486431 2.6834657 8880764
1.2996767 -0.3899413 2.6417558 8683125
1.3321615 -0.37745041 2.6797204 6577254
1.2626483 -0.36027166 2.726217 8947069
1.0487661 -0.31742167 2.840169 10327958
1.0900204 -0.30241713 2.8858852 10065298
1.0958828 -0.29385662 2.9110825 10262162
1.0855626 -0.31868336 2.8383403 10130576
1.1168689 -0.30211809 2.8880992 9538445
1.0567037 -0.28506058 2.9347107 10459798
1.0343252 -0.26662368 2.9872265 10460312
1.0926566 -0.28537282 2.9356019 10196626
1.0794153 -0.26775524 2.986192 10525075
1.1380366 -0.31946653 2.8386889 9801867
1.1495974 -0.30373082 2.8850455 9998985
1.0657699 -0.2494217 3.0388446 10591642
-0.059706561 0.45003647 3.4157164 6115646
-0.071724288 0.040669132 3.5780411 1643541
-0.069859408 0.065187924 3.5662003 5589810
-0.077451766 0.039430492 3.589062 65536
-0.063534111 0.014122136 3.5719719 4800038
-0.05847095 0.078143157 3.5406954 5325880
-0.089704148 0.02352801 3.6171739 526086
-0.095410421 0.049215067 3.6189413 512
-0.053030264 0.15621805 3.5039105 5524791
-0.067347817 0.082498685 3.555629 1511951
-0.089725077 0.10629663 3.5888884 393728
-0.068947412 0.11636276 3.5469999 657416
-0.095303304 0.14262903 3.586776 459776
-0.06103304 0.12807202 3.5283496 5327154
-0.064235769 0.19169097 3.5125048 2761757
-0.071461365 0.23064141 3.5125446 263170
-0.058065526 0.23717149 3.4855242 5919033
-0.080107696 0.1616324 3.5521576 131584
-0.094512239 0.24484126 3.5503345 788480
-0.06788075 0.29680926 3.4832761 1907474
-0.088689588 0.33921453 3.5072658 526084
-0.060843207 0.31466147 3.4641457 5655611
-0.070514828 0.36342144 3.4653544 3287842
-0.084863111 0.28774637 3.5177991 526336
-0.073136888 0.40134639 3.4572275 5721145
-0.0822834 0.39161861 3.4774797 657155
-0.06739036 0.44388705 3.4320374 4405820
-0.089960925 0.44138622 3.474654 394753
-0.055350944 0.38021773 3.43155 6444091
-0.066428877 0.54524803 3.3955719 525826
-0.061518788 0.52012348 3.3950851 5721150
-0.053697281 0.57516783 3.3617768 5985087
-0.077430122 0.56012833 3.4108346 395010
-0.056845974 0.66564029 3.3366411 6050880
-0.086029463 0.66101789 3.3922198 65793
-0.066254012 0.58766949 3.3807309 4143923
-0.069529407 0.62664521 3.3734534 1117965
-0.061044 0.75240517 3.3147178 3749164
-0.063916132 0.70480227 3.3363214 2236447
-0.084788576 0.7058019 3.3745983 131585
-0.075001985 0.74698609 3.3423975 256
-0.073235013 0.83915544 3.3075871 256
-0.057397507 0.78364772 3.2972791 5787713
-0.048092302 0.8502444 3.2572727 6050881
-0.060737789 0.84278661 3.2832215 4340282
-0.080981627 0.79749048 3.3361776 855051
-0.089841031 0.83303368 3.3404069 65793
-0.062261999 1.006911 3.2298768 5459522
-0.057175145 1.0600626 3.202276 5524804
-0.084304824 0.8848871 3.3124187 66049
-0.058092594 0.92369568 3.2506397 1776151
-0.07549347 0.92242432 3.2832696 0
-0.05029868 0.89558685 3.2458384 5196096
-0.066528328 0.88020194 3.2811315 328964
-0.070441298 0.99112135 3.2504134 256
-0.078317679 1.0530442 3.2437963 66049
-0.057419013 0.96386194 3.2356482 5063998
-0.060166713 1.0359205 3.2160726 2039581
-0.066718958 1.119494 3.1995964 4735802
-0.069097683 1.143569 3.1957588 2105115
-0.063093215 1.157424 3.1799078 263940
-0.063859418 1.1907748 3.1699121 5788481
-0.077997975 1.2038549 3.191596 7434595
-0.066504613 1.1721058 3.1811955 3223338
-0.077339999 1.1035889 3.2246909 66304
-0.079225436 1.1307403 3.2188878 329220
-0.099680983 1.2398049 3.2194121 8549690
-0.077739455 0.48415971 3.4374042 328960
-0.098044649 0.47799936 3.4770813 656897
-0.088611342 0.5294838 3.442009 590592
-0.073987037 0.49760368 3.4258604 4274738
0.78088498 -0.48645127 2.1809037 5985612
0.57727307 -0.37240016 2.5186031 9014414
0.53146642 -0.34743831 2.5948133 9144965
0.5593124 -0.36184502 2.5482221 10457468
0.69325864 -0.4424983 2.3279915 6710368
0.67428344 -0.431629 2.35938 7632245
0.65592718 -0.41833469 2.3887939 7304305
0.71771187 -0.45547143 2.2871864 6314583
0.75213307 -0.47508684 2.230212 5985615
0.61465663 -0.39560542 2.4573758 8817806
0.63799322 -0.40903091 2.4187922 8159622
0.93656898 -0.58365571 1.9261165 5130301
0.90672004 -0.56717581 1.9757044 5459525
0.86805797 -0.53790027 2.0372195 5591113
0.82568312 -0.51450855 2.1076179 5590856
0.84691209 -0.5262723 2.0723648 5656393
0.80646259 -0.50219423 2.1389661 5656649
0.38240913 0.44883046 2.5981133 8355973
0.76857525 -0.19137849 2.1027026 9736855
0.78143704 -0.1557886 2.066726 5458500
0.75728005 -0.14379111 2.1073167 4340533
0.73524457 -0.1648165 2.1552823 9473683
0.70374805 -0.14536855 2.2069027 10525346
0.75020027 -0.15706736 2.124959 5657166
0.78307939 -0.0048008724 2.0120177 7826539
0.77506363 0.056673624 2.0058119 7826795
0.67903513 -0.050660465 2.2202175 7301217
0.67488337 0.010522452 2.2069619 8156531
0.67102265 0.051281743 2.2001567 8156531
0.76849288 -0.090764999 2.0684245 6840411
0.75971913 -0.10898589 2.090893 7366238
0.77185011 -0.049098507 2.0479536 7826794
0.74608171 -0.048640702 2.0954745 7827307
0.7372393 -0.097008944 2.1283872 7300696
0.7181918 -0.12136982 2.1719661 5064517
0.71765763 -0.071772888 2.155982 7366494
0.69717413 -0.060998954 2.1901939 7235168
0.73387289 -0.062399834 2.1227725 6971998
0.72846615 0.0022973535 2.1106358 8089711
0.72401398 0.055649087 2.100616 8089968
0.76228225 0.0030486821 2.0478113 7957869
0.74544209 -0.01001266 2.0834394 8089453
0.76065087 0.043478686 2.0369945 7958124
0.74453968 0.047552109 2.0654097 8023918
0.71393579 -0.015240505 2.1435225 8024688
0.6928702 -0.0095789144 2.1805606 8090481
0.70885646 0.039787408 2.134089 8090482
0.68967569 0.038746152 2.1699345 8156019
0.58050716 -0.045130264 2.4006245 5196361
0.56532776 0.0047406433 2.4116433 7827818
0.59569246 0.049279738 2.3402202 8222837
0.57233649 0.053343218 2.3820436 8157303
0.46870425 -0.025872953 2.6008952 12037801
0.46383071 0.012020957 2.5969448 5657679
0.47727889 0.049625199 2.5591941 7893868
0.45004344 0.060973428 2.6057024 7763310
0.54063469 -0.054612648 2.4776425 11644849
0.56404698 -0.067966945 2.4388943 11184814
0.50136685 -0.02827931 2.5412858 9999515
0.51634872 -0.014574127 2.5088756 5460046
0.53528416 0.025565103 2.4601049 7762281
0.51440966 0.051298421 2.4899211 7564903
0.55395889 -0.032795839 2.4455235 5526097
0.5365001 -0.013568224 2.4712467 4933953
0.55217153 0.031372875 2.426872 7564905
0.48845842 0.002248921 2.5547216 5328715
0.50054532 0.036814582 2.52053 7762026
0.68047071 -0.13744712 2.2472606 11052456
0.71038896 -0.14275737 2.1937222 7631733
0.63382405 -0.040049627 2.3002369 7761766
0.66791844 -0.1068401 2.260011 5854803
0.64536256 -0.089631952 2.2958558 5328465
0.65834713 -0.049010511 2.2579303 7432804
0.63781852 -0.10499316 2.3150711 8092803
0.61095726 -0.09685307 2.3619847 12237242
0.61825997 -0.067946173 2.3385806 4933188
0.59208345 -0.071003497 2.3880596 7828599
0.62236005 -0.010131218 2.3112099 7433316
0.61923414 0.043817893 2.298532 8222837
0.6597141 -0.002501006 2.2394855 8025459
0.63855976 -0.00092015497 2.2780848 7827823
0.64722061 0.045381203 2.2462151 8156789
0.60417557 -0.012895521 2.3458011 7367782
0.58100057 0.0052376539 2.3824754 7367525
0.68836212 -0.10817089 2.2226408 5065030
0.76911592 0.10494885 2.0002966 7826796
0.78215146 0.14828004 1.961349 7826796
0.76615578 0.14773813 1.9911304 7827310
0.73349494 0.25861084 2.0136185 8025208
0.78425676 0.19524024 1.9413836 7827057
0.76085043 0.1931092 1.98542 7892850
0.77089739 0.2462617 1.9486414 7959156
0.75386029 0.24052671 1.9821271 7959157
0.66538274 0.093621626 2.1961031 8156533
0.67871916 0.14738724 2.1530285 8156021
0.65704113 0.14036784 2.1955397 8156790
0.6850543 0.25533003 2.1043677 8157050
0.6332835 0.25010297 2.2019446 8288634
0.67130876 0.19261165 2.151263 8156534
0.65404117 0.19650462 2.1818798 8222328
0.66670394 0.24410991 2.1421597 8157049
0.65018958 0.24001548 2.1741164 8223097
0.71610278 0.096104391 2.1014094 8090225
0.72625369 0.15284185 2.0632122 8024432
0.70550996 0.14449801 2.1044481 8090226
0.7508682 0.091741711 2.0385785 7892846
0.73482293 0.10248756 2.0645883 7958640
0.74727392 0.1420359 2.0280173 7958382
0.69589168 0.10306783 2.1364217 8090484
0.68584824 0.084085532 2.1615005 8156277
0.72318786 0.20243834 2.0519118 8024693
0.70478714 0.1901397 2.0901661 8090484
0.71731865 0.25464559 2.0449057 8090999
0.70496535 0.23817153 2.0733993 8025463
0.74150497 0.19687103 2.0199261 8024435
0.68805468 0.2012368 2.1173275 8156279
0.78475893 0.30412668 1.9031929 7893623
0.7804327 0.35472423 1.893882 7894394
0.72839671 0.30767629 2.0062609 8091259
0.724989 0.35772088 1.9954404 8157567
0.76630986 0.29674879 1.9398524 7959672
0.74636626 0.29030651 1.9789573 8025465
0.75874144 0.3419323 1.9383935 8025723
0.74229401 0.33269185 1.9719872 8091515
0.76817888 0.40127781 1.9006233 7762011
0.78500426 0.45813775 1.8500348 7499373
0.76632732 0.4424378 1.8899637 6906698
0.73425651 0.42062142 1.9567683 7894104
0.72335541 0.39422902 1.9859694 8223103
0.71956819 0.46217579 1.9697247 7170379
0.70914978 0.44029099 1.9964904 8026222
0.75177616 0.37947497 1.9384332 8091515
0.74642867 0.44367048 1.9263592 7236431
0.67622393 0.305163 2.1036527 8288638
0.669321 0.35457435 2.0995162 8354946
0.62281495 0.30046663 2.2040787 8354687
0.6154412 0.34226283 2.2034187 8486275
0.65930927 0.29101104 2.1397915 8288893
0.64041734 0.29767254 2.1724665 8354687
0.65032101 0.34221828 2.1388984 8420482
0.63089532 0.34976658 2.1722577 8486274
0.68388247 0.39975545 2.0571122 8420740
0.6640777 0.40760696 2.0910685 8486789
0.6730302 0.4525784 2.0591152 8090457
0.65656841 0.45420665 2.089016 8222823
0.62618643 0.4066591 2.1615005 8552583
0.60678035 0.39412561 2.2016954 8552582
0.61988562 0.45055097 2.1581385 8683909
0.59777665 0.45072028 2.198987 8553096
0.64791739 0.38889059 2.1273737 8486532
0.6434626 0.43492904 2.1198618 8552581
0.71305597 0.29777011 2.0380352 8157307
0.69815791 0.29249293 2.0674055 8157308
0.70888239 0.34233293 2.0305071 8223103
0.68996835 0.34568495 2.0643554 8289152
0.7017765 0.39602622 2.0252805 8289153
0.68984437 0.44480166 2.0306661 7828057
0.58301902 0.10446059 2.3447857 8223096
0.55643976 0.10862286 2.3925385 8288889
0.57430881 0.15461846 2.3437371 8288632
0.550035 0.15896071 2.3871634 8288890
0.58310246 0.19904239 2.3122642 8288377
0.57622188 0.25288239 2.3065703 8354172
0.5394128 0.20625401 2.3906326 8354682
0.52034801 0.24384104 2.4130442 8420221
0.56341976 0.19843933 2.3488882 8354170
0.55984277 0.24616854 2.3391731 8288891
0.54426777 0.23705471 2.371109 8354427
0.43170288 0.15258116 2.6082878 8158076
0.46814367 0.088894814 2.5626578 7828853
0.45271847 0.086620949 2.5919759 7302247
0.46567133 0.14341037 2.5485768 8420478
0.44761014 0.12993756 2.5866041 8354942
0.48533875 0.1995081 2.4929903 8420476
0.46748975 0.25987992 2.5053554 8420478
0.41774055 0.21784402 2.6117878 8355198
0.4205575 0.25143296 2.5950809 8289661
0.46144563 0.1995142 2.5371957 8355197
0.43492895 0.19626024 2.5873713 8223867
0.4487308 0.24748467 2.5443053 8355196
0.43581235 0.24811302 2.5679922 8157818
0.53404242 0.085147955 2.4420123 8288889
0.50389117 0.09355092 2.4949238 8354682
0.51498687 0.14383517 2.4571862 8420221
0.49382454 0.14407548 2.4962592 8486013
0.53434062 0.14315489 2.4216104 8354682
0.4868663 0.093064919 2.5265896 8223355
0.48014173 0.14540128 2.5211217 8420222
0.51428688 0.19105063 2.4423237 8420220
0.50119877 0.25002468 2.4463584 8420222
0.48940063 0.24514548 2.4698572 8420478
0.4856174 0.45357785 2.40553 8553096
0.56754375 0.3047837 2.3048661 8420223
0.58127475 0.352727 2.2630537 8486275
0.5622828 0.34802637 2.2998016 8486275
0.52431267 0.27818632 2.3939552 8420477
0.53759718 0.35033986 2.3446844 8486275
0.51505762 0.33933514 2.3901536 8552066
0.54961848 0.29606646 2.3410146 8420479
0.53188646 0.30471256 2.3708646 8420479
0.5374344 0.45372853 2.3096049 8553096
0.58123237 0.40224591 2.2461863 8552582
0.55498344 0.39779913 2.2962742 8552581
0.5766443 0.45987833 2.2349527 8618376
0.56177014 0.44134763 2.268815 8552839
0.52396417 0.39556918 2.3544304 8552581
0.50050646 0.39508551 2.3979983 8552580
0.516608 0.45067629 2.3491828 8552839
0.50510705 0.43408111 2.3761413 8618375
0.48477113 0.30826187 2.4568238 8486272
0.46772775 0.29879811 2.4915967 8420736
0.48238337 0.35779688 2.4442902 8552323
0.4582583 0.3414782 2.4945118 8486530
0.43238974 0.29919732 2.5568433 8223357
0.41517931 0.30061129 2.588203 8355199
0.41603056 0.3569617 2.5673437 8420994
0.40080363 0.34539017 2.5994771 8420993
0.44364524 0.29743445 2.5366216 8354943
0.43356737 0.34938592 2.5374892 8355198
0.44326147 0.45095491 2.4847958 8355717
0.47543609 0.4096756 2.4393911 8552583
0.45393223 0.40040812 2.4823496 8552581
0.46735054 0.4589158 2.437501 8487559
0.41393042 0.41244683 2.5522423 8421252
0.3985275 0.39735851 2.5859046 8421251
0.41381177 0.4552117 2.5378273 8355974
0.39431405 0.44408607 2.5777099 8355973
0.43023458 0.40564761 2.5244031 8289665
0.50560647 0.29774526 2.4218724 8420735
0.49724314 0.3441821 2.4214559 8486530
0.48900151 0.39964843 2.4177234 8552581
0.62971896 0.10302597 2.2588708 8222583
0.61327899 0.094188713 2.2923124 8222839
0.63522655 0.14471297 2.2344148 8222582
0.60379231 0.14481747 2.2925394 8222839
0.64774573 0.093703121 2.2287078 8157045
0.61762303 0.18667829 2.2526243 8222583
0.60036796 0.19277881 2.2824626 8222841
0.61770368 0.24467008 2.23263 8288378
0.59788489 0.24318123 2.2698085 8354171
0.63679171 0.19301419 2.2149897 8157047
0.60748059 0.29127032 2.2355976 8354686
0.58511114 0.2935487 2.2762065 8420222
0.60071927 0.35201025 2.2273219 8486531
0.79245794 0.61685354 1.7819299 6449004
0.78180772 0.65905076 1.7871948 4869476
0.76532036 0.69950062 1.8038577 6645869
0.36968026 0.48518109 2.6092248 8224901
0.38894299 0.55009496 2.5513701 8225159
0.36717269 0.54543716 2.5932443 8159367
0.37064576 0.59865379 2.5686073 8093577
0.35446018 0.58974445 2.601603 8093574
0.37554041 0.64682031 2.5430684 8027526
0.35107508 0.63627118 2.5919445 7962245
0.38367748 0.74492115 2.4944413 7436159
0.32676321 0.75423926 2.5965571 7304572
0.36930725 0.69991082 2.536433 7699076
0.35449746 0.68335891 2.5694985 7830659
0.35964537 0.74372137 2.5393169 7436158
0.33892426 0.74379694 2.5776298 7436159
0.36856368 0.79944229 2.5037484 7041142
0.38495627 0.85327935 2.4549942 5920329
0.3750059 0.83575261 2.4794025 6118481
0.31294692 0.80548733 2.6045828 6844278
0.33211869 0.86103296 2.5501027 5984831
0.31582478 0.8397249 2.5875421 6777968
0.33883476 0.80138981 2.5580869 7106679
0.35298106 0.85283428 2.5143082 6051915
0.28069955 0.92757899 2.6224673 5922915
0.2831721 0.97048867 2.6032083 5593690
0.27346826 1.0112933 2.6071992 5198675
0.37997067 0.8874262 2.4525332 5722951
0.36533189 0.89607161 2.47666 5657414
0.36286569 0.95346993 2.4615808 5065789
0.35067183 0.93217295 2.49143 5394497
0.321711 0.88720095 2.5604043 5854540
0.30618396 0.88822097 2.5887837 6251623
0.31660947 0.94024229 2.5516918 5856091
0.30311099 0.93298328 2.5791516 5791587
0.3376978 0.89901978 2.5267806 5591362
0.33222288 0.97077298 2.512356 5131846
0.30804211 0.98137295 2.5534682 5462104
0.29304755 1.001518 2.5743179 5330262
0.58490443 0.49512967 2.2076066 8223075
0.57959634 0.54608709 2.1999896 7696214
