# .PCD v0.7 - Point Cloud Data file format
VERSION 0.7
FIELDS x y z rgba
SIZE 4 4 4 4
TYPE F F F U
COUNT 1 1 1 1
WIDTH 1147
HEIGHT 1
VIEWPOINT 0 0 0 1 0 0 0
POINTS 1147
DATA ascii
-0.25466698 -0.049548712 1.278217 16639201
-0.24540408 -0.049665049 1.277804 16639201
-0.23529905 -0.049791925 1.2773534 16639201
-0.2285554 -0.049435396 1.2772287 16639201
-0.20382869 -0.048128244 1.2767717 16639201
-0.35314381 -0.045312125 1.2838058 12177892
-0.34578031 -0.045211706 1.2835544 85491
-0.33467516 -0.044090252 1.2835627 85491
-0.3249763 -0.044710636 1.282931 85491
-0.31543049 -0.044520959 1.2826289 85491
-0.30456808 -0.04417089 1.2823386 85491
-0.29473504 -0.04451609 1.2818116 16639201
-0.28462583 -0.04437831 1.2814665 16639201
-0.27474844 -0.043947212 1.2812477 16639201
-0.26560685 -0.044020299 1.2808567 16639201
-0.25542143 -0.043980304 1.2804694 16639201
-0.24531223 -0.04384261 1.2801243 16639201
-0.23520304 -0.043704771 1.2797792 16639201
-0.22531539 -0.043376081 1.2795192 16639201
-0.21460509 -0.043100737 1.2792052 16639201
-0.20487539 -0.043291546 1.2787437 16639201
-0.19506964 -0.042049117 1.2788515 2078428
-0.18461105 -0.0401049 1.2792138 2078428
-0.17787158 -0.040013041 1.2789836 2078428
-0.16608517 -0.040337514 1.2783877 2078428
-0.35401529 -0.035895951 1.2875987 12177892
-0.34550717 -0.036088541 1.2871852 12177892
-0.3349508 -0.035232078 1.2871091 85491
-0.32530037 -0.035009235 1.2868162 12177892
-0.31529254 -0.034413774 1.2866577 85491
-0.30506709 -0.036327504 1.2854891 85491
-0.29468012 -0.034784604 1.2856939 16639201
-0.2848677 -0.036103364 1.2847792 16639201
-0.27565768 -0.036355082 1.284314 16639201
-0.26569599 -0.034223881 1.2847705 16639201
-0.25519657 -0.035272248 1.2839365 16639201
-0.24500977 -0.034767728 1.2837347 16639201
-0.23546539 -0.034266923 1.2835568 16639201
-0.22472528 -0.034798466 1.2829195 16639201
-0.21481255 -0.03516636 1.2823802 16639201
-0.20527747 -0.033584632 1.2826341 16639201
-0.19481714 -0.034100056 1.2820145 16639201
-0.18451923 -0.034282416 1.2815342 2078428
-0.17553325 -0.034159951 1.2812274 2078428
-0.16545703 -0.033957787 1.2809091 2078428
-0.15544917 -0.032847293 1.2809563 2078428
-0.14479119 -0.032599635 1.2806333 2078428
-0.1350811 -0.032638561 1.2802335 2078428
-0.12581828 -0.031392913 1.2803642 2078428
-0.11483207 -0.030422246 1.2803166 2078428
-0.10556147 -0.030053392 1.280097 2078428
-0.097968087 -0.029222272 1.2801282 2078428
-0.3600373 -0.025330385 1.2920544 12177892
-0.35599542 -0.02856878 1.2906018 12177892
-0.34475696 -0.028628469 1.2901332 12177892
-0.33903959 -0.028290799 1.2900417 85491
-0.32588065 -0.026063623 1.2904098 12177892
-0.31427163 -0.026804456 1.2896545 85491
-0.29355368 -0.027346259 1.2886182 16639201
-0.28678793 -0.02725409 1.2883873 16639201
-0.26482773 -0.024790455 1.2885015 16639201
-0.25541231 -0.025073323 1.288016 16639201
-0.2447648 -0.025463916 1.2874385 16639201
-0.23582174 -0.025408458 1.2871066 16639201
-0.20223157 -0.027075749 1.2851118 46273
-0.1951908 -0.025466727 1.2854753 2078428
-0.18529747 -0.026100842 1.2848306 46273
-0.17491047 -0.02418877 1.2851827 46273
-0.16551127 -0.024051063 1.2848657 46273
-0.15482534 -0.023507774 1.2846594 46273
-0.14454024 -0.023672665 1.2841867 46273
-0.13539535 -0.023854023 1.2837523 46273
-0.12511377 -0.024082491 1.2832541 46273
-0.11489476 -0.024189509 1.282807 46273
-0.10465997 -0.024379935 1.2823259 46273
-0.094743401 -0.024133282 1.2820318 9905089
-0.085505232 -0.022261115 1.2824135 9905089
-0.075411342 -0.023093695 1.2816817 9905089
-0.066417716 -0.022486093 1.2815682 9905089
-0.055162299 -0.020877425 1.2817649 9905089
-0.046176337 -0.020754918 1.281458 9905089
-0.032260336 -0.021341478 1.2806731 9905089
-0.026419459 -0.021261901 1.2804737 9905089
-0.35996047 -0.020459492 1.2939956 12177892
-0.35685766 -0.015492314 1.2958556 12177892
-0.3272748 -0.020988021 1.2924908 85491
-0.26638314 -0.020158201 1.2904119 16639201
-0.17279045 -0.018882776 1.2872167 46273
-0.16319798 -0.018265074 1.2870835 46273
-0.15485294 -0.01632515 1.2875276 46273
-0.14395487 -0.016092341 1.2871891 46273
-0.13527367 -0.01490853 1.2873181 46273
-0.12536879 -0.014340665 1.2871528 46273
-0.11522021 -0.014202387 1.2868063 46273
-0.10495661 -0.014394256 1.2863234 46273
-0.094652571 -0.014753709 1.2857721 14102335
-0.08532007 -0.014640959 1.2854477 14102335
-0.075104229 -0.015489626 1.2847047 14102335
-0.065179676 -0.015192729 1.2844304 14102335
-0.055070467 -0.01505494 1.2840853 14102335
-0.044961251 -0.014917196 1.28374 14102335
-0.03491028 -0.014445407 1.2835305 14102335
-0.025085866 -0.013381157 1.2835666 14102335
-0.014987149 -0.012411986 1.2835536 14102335
-0.0048156772 -0.012100069 1.2832756 14102335
0.0011530444 -0.010408075 1.2837147 14102335
0.019124975 -0.010163191 1.2831011 14102335
0.021340845 -0.012073281 1.2822509 12452297
-0.35557082 -0.0098591913 1.2980531 12177892
-0.12076612 -0.0084341578 1.2893282 46273
-0.11483234 -0.0061056903 1.2900229 46273
-0.10494144 -0.0058121877 1.2897483 46273
-0.094784684 -0.0051581855 1.2896075 14102335
-0.084636115 -0.0050198687 1.289261 14102335
-0.07425762 -0.0057278089 1.2885677 14102335
-0.065358661 -0.0051814467 1.2884336 14102335
-0.055128761 -0.0054686489 1.2879139 14102335
-0.044823486 -0.0061836485 1.2872206 14102335
-0.035416756 -0.004915399 1.2873547 14102335
-0.024872083 -0.0042054146 1.2872205 14102335
-0.01472348 -0.0040670964 1.2868741 14102335
-0.0045420267 -0.0042476328 1.2863991 14102335
0.004588922 -0.005402856 1.2855763 14102335
0.014708518 -0.005372331 1.2851882 14102335
0.024817733 -0.0052346303 1.2848431 8883528
0.034139931 -0.0041374252 1.2849121 8883528
0.044686303 -0.0031561262 1.2848864 8883528
0.05519129 -0.0019102007 1.2849679 8883528
0.061930764 -0.001818386 1.2847378 8883528
0.084759876 -0.0021540243 1.2837001 8883528
0.10909176 -0.0021458319 1.2827404 8883528
0.11809304 -0.0010529986 1.2828203 8883528
0.12407858 -0.0012948125 1.2824868 15895054
-0.35306388 -0.0013175472 1.3013635 12177892
-0.11162221 -0.0005177767 1.2921261 46273
-0.10334273 0.00024439453 1.2921026 46273
-0.094311498 0.001016723 1.2920536 14102335
-0.085100017 0.0013045899 1.2918038 14102335
-0.074837126 0.0015419115 1.2914921 14102335
-0.065054201 0.0018876815 1.2912431 14102335
-0.05519497 0.0031731077 1.2913659 14102335
-0.04504637 0.003311425 1.2910193 14102335
-0.036025375 0.0034343302 1.2907114 14102335
-0.024795249 0.00066548027 1.2891617 14102335
-0.013049856 0.0030731328 1.289658 14102335
-0.0044519361 0.0038646096 1.2896335 14102335
0.0045690453 0.0039875591 1.2893255 14102335
0.014717655 0.004125834 1.2889791 14102335
0.024866259 0.0042641517 1.2886325 8883528
0.035014868 0.0044024708 1.288286 8883528
0.045161795 0.0043250336 1.2878536 8883528
0.055303253 0.0043339361 1.2874557 8883528
0.065198369 0.0042008683 1.2870111 8883528
0.075516231 0.0044210246 1.2866906 8883528
0.085595451 0.0033551008 1.2858661 8883528
0.093984835 0.0039917897 1.2857883 8883528
0.10806037 0.0036611948 1.2850991 8883528
0.11483601 0.0039716791 1.2849547 8883528
0.12514581 0.005199397 1.2850368 15895054
0.13503961 0.0041382164 1.2842216 15895054
0.14443499 0.0047633611 1.2840992 15895054
0.15528259 0.0072153159 1.2846487 15895054
0.16566113 0.0066291247 1.2840039 15895054
0.1732392 0.0064898739 1.2836483 15895054
0.26536065 0.0087154415 1.2808905 7191301
-0.35281056 0.0039871521 1.3034706 12177892
-0.05060764 0.0081054764 1.293153 14102335
-0.044969529 0.0081823198 1.2929605 14102335
-0.036418639 0.0091336435 1.2930019 14102335
-0.0032321131 0.0097250519 1.2919244 14102335
0.0046766126 0.010806814 1.2920431 14102335
0.014306978 0.0098558692 1.2912824 14102335
0.026078401 0.0096374825 1.2907294 8883528
0.035817444 0.012399959 1.2914464 8883528
0.045301773 0.013308353 1.2914337 8883528
0.055450372 0.013446676 1.2910872 8883528
0.065598972 0.01358499 1.2907407 8883528
0.07461381 0.013620028 1.290398 8883528
0.084708743 0.01321123 1.2898352 8883528
0.094838917 0.013279255 1.2894616 8883528
0.10419867 0.012998843 1.2889791 8883528
0.11566968 0.013694389 1.2888026 15895054
0.12481871 0.013928176 1.2885338 15895054
0.1354212 0.014096833 1.2881815 15895054
0.14492282 0.012874902 1.2873178 15895054
0.15395202 0.014555791 1.2876312 15895054
0.16537213 0.013310083 1.2866819 15895054
0.1744023 0.014570006 1.2868277 15895054
0.1974328 0.016715433 1.2867724 15895054
0.20508236 0.01535695 1.2859273 15895054
0.21413474 0.015778905 1.2857374 7191301
0.22361086 0.016462389 1.2856352 7191301
0.24751118 0.016233696 1.2845979 7191301
0.25537947 0.014478368 1.2835857 7191301
0.26522803 0.014804737 1.2833261 7191301
0.27277651 0.016092891 1.2835417 7191301
0.28331205 0.0178304 1.2838182 7191301
0.29471809 0.018817356 1.2837608 7191301
0.30413499 0.017781464 1.2829746 7191301
0.31470576 0.018701676 1.2829235 7191301
0.32504573 0.019230677 1.2827253 7191301
0.3317852 0.019322492 1.2824953 7009712
0.34600785 0.01919294 1.2818805 7009712
0.35536319 0.018997012 1.2814322 7009712
0.36266679 0.019258268 1.2812473 7009712
0.38640898 0.017479749 1.2795976 7009712
0.39477095 0.017593779 1.2793121 7009712
0.40476555 0.018376701 1.279229 7009712
0.41188964 0.01912058 1.2792439 5144007
0.43474427 0.02040221 1.278851 5144007
0.44335073 0.020196123 1.2784281 5144007
0.04540934 0.020127565 1.2941515 8883528
0.05367345 0.019915555 1.2937397 8883528
0.06797716 0.021409117 1.2937697 8883528
0.075401038 0.020341508 1.2930497 8883528
0.086739495 0.021841852 1.2931999 8883528
0.095055461 0.022752101 1.293234 8883528
0.10217147 0.021225791 1.292343 8883528
0.1175772 0.021111071 1.2916875 15895054
0.12208769 0.021172546 1.2915335 15895054
0.13785906 0.020413484 1.2906064 15895054
0.14464015 0.021479875 1.2907636 15895054
0.15478878 0.02161815 1.2904172 15895054
0.16493738 0.021756466 1.2900707 15895054
0.17586887 0.022660386 1.2899988 15895054
0.18509778 0.02435283 1.290309 15895054
0.19530872 0.023549078 1.289584 15895054
0.20529817 0.021633951 1.2884243 15895054
0.21528572 0.023416586 1.2887404 15895054
0.224447 0.023795065 1.2885289 7191301
0.23493522 0.023277985 1.2879074 7191301
0.24632239 0.024434179 1.2879182 7191301
0.2549094 0.024406075 1.287567 7191301
0.26519454 0.024158241 1.2870611 7191301
0.27457622 0.023393851 1.2863847 7191301
0.28468543 0.023531683 1.2860396 7191301
0.29479462 0.023669379 1.2856945 7191301
0.30505645 0.024081742 1.2854527 7191301
0.31501305 0.023944912 1.2850041 7191301
0.32512221 0.02408275 1.2846589 7191301
0.33523148 0.024220446 1.2843139 7009712
0.34534067 0.024358282 1.2839687 7009712
0.35544989 0.024495978 1.2836236 7009712
0.3637619 0.024609214 1.2833397 7009712
0.37538749 0.024767712 1.2829428 7009712
0.38498849 0.025351569 1.2827959 7009712
0.39476347 0.025031809 1.2822813 7009712
0.40487272 0.025169507 1.2819362 7009712
0.4149819 0.025307294 1.2815912 5144007
0.42509112 0.02544504 1.2812459 5144007
0.43520033 0.025582831 1.2809008 5144007
0.44499514 0.026132086 1.2807323 5144007
0.45431083 0.026813366 1.2806356 5144007
0.46120197 0.026352948 1.280179 5144007
0.088412672 0.030453321 1.2965709 8883528
0.091780178 0.029525246 1.2960671 8883528
0.17970403 0.028775515 1.2922877 15895054
0.18534216 0.028852314 1.2920953 15895054
0.19210789 0.028944526 1.2918644 15895054
0.21804321 0.029297963 1.2909789 15895054
0.22502574 0.033050664 1.2922006 7191301
0.2347165 0.032258265 1.2915006 7191301
0.24297322 0.031373199 1.2908206 7191301
0.26774386 0.032430254 1.2902621 7191301
0.27490661 0.032621603 1.2900549 7191301
0.2836341 0.031641714 1.2893183 7191301
0.29498583 0.031212287 1.2886975 7191301
0.30526659 0.031785231 1.2885194 9570851
0.31490746 0.03232282 1.2883523 7009712
0.32469091 0.03219061 1.2879122 7009712
0.33548033 0.032995164 1.2878065 7009712
0.34538552 0.033083435 1.2874496 7009712
0.35498029 0.033525512 1.2872462 7009712
0.36436668 0.034256313 1.2871666 7009712
0.37505564 0.033893131 1.2865984 7009712
0.38513228 0.035069272 1.2866691 7009712
0.39533657 0.034929216 1.2862092 7009712
0.40507266 0.035200581 1.2859323 5144007
0.41517037 0.034188934 1.2851287 5144007
0.42489016 0.035151921 1.2851284 5144007
0.43490279 0.035331875 1.2848039 5144007
0.44524875 0.035283402 1.2843751 5144007
0.45457885 0.035600282 1.2841322 5144007
0.4646073 0.034789443 1.2834117 5144007
0.4741438 0.035880074 1.2834696 5144007
0.48465216 0.036472179 1.2832901 5144007
0.49445751 0.037450418 1.2832924 722338
0.50452775 0.038277585 1.283224 722338
0.51714706 0.037759647 1.2825177 722338
0.5258649 0.037727226 1.2821597 722338
0.53386438 0.039274603 1.2824607 722338
0.54458421 0.038947422 1.2819058 722338
0.55495977 0.038380206 1.2812688 722338
0.56288004 0.039450038 1.2813824 722338
0.58477563 0.039263353 1.2804412 5163669
0.59263837 0.039370537 1.2801727 5163669
0.22685222 0.039807003 1.294825 7191301
0.23285596 0.039239544 1.2943608 7191301
0.34638023 0.041435864 1.2907442 7009712
0.352384 0.040868405 1.29028 7009712
0.37719169 0.041206472 1.289433 7009712
0.38508505 0.041314054 1.2891635 7009712
0.39523366 0.041452371 1.2888169 5144007
0.40708143 0.042100769 1.288607 5144007
0.41554621 0.042703141 1.2885122 5144007
0.42343962 0.042810727 1.2882427 5144007
0.43521529 0.04286297 1.2877976 5144007
0.44537407 0.044779256 1.2881604 5144007
0.45588186 0.044713769 1.2877183 5144007
0.46519247 0.045327637 1.2875948 5144007
0.47517222 0.045277502 1.2871798 5144007
0.48553801 0.044767119 1.286566 5144007
0.49496892 0.044703044 1.286167 5144007
0.50529546 0.0441899 1.2855535 722338
0.5152263 0.044136729 1.2851392 722338
0.52515244 0.045208395 1.285174 722338
0.53525949 0.045865033 1.2850362 14735805
0.54525357 0.046418689 1.2848614 722338
0.55540222 0.046557002 1.2845149 722338
0.56459385 0.046051737 1.2839495 722338
0.57430476 0.046101369 1.2835851 722338
0.58459598 0.045611333 1.282982 5163669
0.59443969 0.045609146 1.2825916 5163669
0.60513186 0.048272435 1.2832316 5163669
0.61598986 0.04842047 1.2828609 5163669
0.62510723 0.047380466 1.2820848 5163669
0.44566086 0.050710473 1.2905165 5144007
0.46641225 0.051188033 1.2898859 5144007
0.47653788 0.053632766 1.2904609 5144007
0.48562789 0.054371793 1.2903961 5144007
0.4946489 0.054494753 1.2900881 12263132
0.50479728 0.054633062 1.2897416 12263132
0.51511699 0.053942624 1.2890575 14735805
0.522636 0.053514205 1.288589 14735805
0.54716223 0.053067662 1.2874399 14735805
0.5555405 0.055324569 1.2880092 14735805
0.56304777 0.0547776 1.2874936 14735805
0.5779506 0.054547757 1.2868122 14735805
0.58485872 0.055724118 1.2870082 14735805
0.59518194 0.055642229 1.2865669 5163669
0.60524267 0.055557948 1.2861351 5163669
0.61512816 0.054843634 1.2854588 5163669
0.62525737 0.055949498 1.2854991 5163669
0.4767237 0.061652668 1.2936546 12263132
0.48516399 0.060696252 1.2929389 12263132
0.49615005 0.062306948 1.293147 12263132
0.50452954 0.062879503 1.2930437 14735805
0.51506901 0.06256476 1.2925011 14735805
0.52297771 0.063646525 1.2926198 14735805
0.55788797 0.061200377 1.2902616 14735805
0.56239843 0.061261851 1.2901076 14735805
0.57934356 0.063440703 1.2903067 5163669
0.58499044 0.064074211 1.2903359 5163669
0.59370536 0.062662467 1.2894275 5163669
0.60620433 0.063983843 1.2894602 5163669
0.61544287 0.064906619 1.2894629 1410484
0.62559146 0.065044895 1.2891165 1410484
0.5241822 0.068532787 1.2945225 14735805
0.60875392 0.06968531 1.291635 5163669
0.61677504 0.071388371 1.2919974 1410484
0.62481517 0.071419246 1.2916915 1410484
-0.30678475 -0.030269545 1.2879752 85491
-0.28296992 -0.029479781 1.2873478 16639201
-0.27577505 -0.030823935 1.2865264 16639201
-0.22640854 -0.028383303 1.2855468 16639201
-0.2154692 -0.027908592 1.2853034 16639201
-0.20981357 -0.027831484 1.2851101 16639201
-0.35495442 -0.023752091 1.2924832 12177892
-0.34597337 -0.023524432 1.2922186 85491
-0.33506209 -0.024457954 1.2914141 85491
-0.32170248 -0.02349429 1.2912699 12177892
-0.31305999 -0.021556212 1.2917016 85491
-0.30403516 -0.024306001 1.2902468 85491
-0.29454002 -0.022147181 1.2907325 16639201
-0.28459501 -0.022422794 1.290229 16639201
-0.27534944 -0.024328157 1.2891024 16639201
-0.25154188 -0.020584203 1.2896546 16639201
-0.24588625 -0.02050714 1.2894615 16639201
-0.23368858 -0.021513287 1.2885771 16639201
-0.22572602 -0.02291711 1.2877017 16639201
-0.21526016 -0.021382364 1.2879 16639201
-0.20509683 -0.022256345 1.2871488 46273
-0.19498564 -0.019813472 1.2877237 2078428
-0.18396872 -0.02039613 1.2870551 46273
-0.35495883 -0.01686438 1.2952328 12177892
-0.34539235 -0.015933748 1.2952255 12177892
-0.33582422 -0.014766058 1.295313 85491
-0.32496524 -0.014853504 1.2948482 12177892
-0.31503832 -0.014938607 1.2944213 85491
-0.3043671 -0.014346647 1.2942351 85491
-0.29547957 -0.013980076 1.2940297 4238912
-0.2857227 -0.014577064 1.2934054 16639201
-0.27530351 -0.01455988 1.2929997 16639201
-0.26479897 -0.013179614 1.293135 3035829
-0.25525454 -0.013861687 1.292485 3035829
-0.24533489 -0.013630752 1.2921844 3035829
-0.23548539 -0.013624758 1.291797 3035829
-0.22544965 -0.013963167 1.2912648 3035829
-0.2151209 -0.012553456 1.2914186 3035829
-0.20475897 -0.012661209 1.2909654 3035829
-0.1952645 -0.013282613 1.2903416 3035829
-0.18513659 -0.013010011 1.2900494 46273
-0.17502095 -0.01239511 1.2898945 46273
-0.16602509 -0.012232563 1.2896034 46273
-0.15500787 -0.010584361 1.2898253 46273
-0.14621073 -0.010495427 1.2895125 46273
-0.13827525 -0.0092707425 1.2896874 46273
-0.35289896 -0.0067940941 1.2991707 12177892
-0.34574577 -0.0064680474 1.2990178 12177892
-0.33782649 -0.0056662969 1.2990245 12177892
-0.31490579 -0.005086449 1.2983487 85491
-0.30207285 -0.0071999957 1.2969971 85491
-0.29516968 -0.0061905654 1.2971268 4238912
-0.28574386 -0.0046597635 1.2973646 4238912
-0.27545491 -0.0057520815 1.2965213 3035829
-0.26497462 -0.0063675633 1.295861 3035829
-0.25477058 -0.0072092381 1.2951211 3035829
-0.24538334 -0.0058553792 1.29529 3035829
-0.23514834 -0.0047350796 1.2953321 3035829
-0.22553216 -0.0042887419 1.2951294 3035829
-0.21511295 -0.0040533515 1.2948111 3035829
-0.20476207 -0.0035853949 1.2945882 3035829
-0.19567803 -0.0034616063 1.294278 3035829
-0.18545853 -0.0033223163 1.2939292 46273
-0.17523901 -0.003183071 1.2935803 46273
-0.16106845 -0.0044611292 1.2925092 46273
-0.1547042 -0.003115111 1.2927946 46273
-0.14562564 -0.0029914107 1.2924848 46273
-0.13493092 -0.0034315828 1.2918856 46273
-0.12493654 -0.0037811024 1.2913506 46273
-0.11666057 -0.0011602109 1.2920691 46273
-0.10534932 -0.0010060824 1.291683 46273
-0.030741321 -0.0029203012 1.2879658 14102335
-0.35197601 0.00059537985 1.302084 12177892
-0.34670424 0.0012293258 1.3021283 12177892
-0.33979398 0.00045902189 1.3015473 12177892
-0.31361553 0.0047388785 1.3022194 85491
-0.28432322 0.00079465203 1.2994857 4238912
-0.27678132 0.00082737551 1.2992002 3035829
-0.21566121 0.0011699381 1.2969178 3035829
-0.20468469 0.0013194737 1.296543 3035829
-0.19556971 0.0034052366 1.2970147 3035829
-0.18533476 0.0045255776 1.2970568 46273
-0.1751152 0.0046648253 1.2967079 46273
-0.1558581 0.0019848321 1.2948761 46273
-0.1317607 0.0038825241 1.2946796 46273
-0.12474847 0.0042680609 1.2945561 46273
-0.11541833 0.0044357055 1.2942537 46273
-0.1054482 0.0046674958 1.2939515 46273
-0.095543854 0.0061060907 1.2941337 14102335
-0.084028959 0.0063676182 1.2937824 14102335
-0.073941819 0.0065865456 1.2934705 14102335
-0.06632147 0.0069509004 1.2933143 14102335
-0.030618001 0.0048972978 1.2910814 14102335
-0.024946958 0.0059515187 1.2912778 14102335
-0.017671045 0.0063298955 1.2911407 14102335
-0.3533152 0.010353446 1.3060319 12177892
-0.3135691 0.0076818173 1.3033923 85491
-0.18412185 0.0094459048 1.2989727 46273
-0.12391703 0.011737501 1.2975045 46273
-0.11607213 0.011395225 1.2970574 46273
-0.10463669 0.010529089 1.296259 46273
-0.095171183 0.012802215 1.2967918 46273
-0.085499898 0.011240117 1.2957855 14102335
-0.074353032 0.013580185 1.2962784 14102335
-0.064564548 0.013869264 1.2960063 14102335
-0.054488156 0.013946546 1.2956383 14102335
-0.045275878 0.015025022 1.2957041 14102335
-0.03447327 0.015524972 1.2954762 14102335
-0.024945265 0.014567756 1.294717 14102335
-0.014643517 0.013907877 1.2940458 14102335
-0.0049283467 0.015296445 1.2942156 14102335
0.0046318481 0.017101539 1.2945576 14102335
0.015075482 0.016022641 1.2937136 14102335
0.024676552 0.015298622 1.2930444 8883528
0.032460593 0.017676251 1.2936854 8883528
0.10845985 0.017930333 1.2907788 8883528
0.11284792 0.018902021 1.2909929 15895054
0.12790903 0.017804563 1.2899588 15895054
0.13020211 0.019789832 1.2906604 15895054
-0.35538152 0.019862099 1.309909 12177892
-0.060181897 0.02192341 1.2990477 14102335
-0.054249436 0.023769669 1.2995499 14102335
-0.045389421 0.024086591 1.2993256 14102335
-0.035465386 0.023486247 1.2986932 14102335
-0.024699055 0.023689501 1.2983482 14102335
-0.014472608 0.023082066 1.2977011 14102335
-0.0043821288 0.02340769 1.2974315 14102335
0.0046485672 0.023869857 1.2972586 14102335
0.014873801 0.023556318 1.2967287 8883528
0.025084581 0.023242213 1.2961992 8883528
0.035264712 0.023380928 1.2958517 8883528
0.045475651 0.025474133 1.2962829 8883528
0.054967858 0.025017299 1.2957247 8883528
0.063226253 0.02418079 1.295064 8883528
0.074561 0.024893476 1.2948999 8883528
0.082787365 0.025005603 1.294619 8883528
0.10671581 0.025182275 1.2937425 8883528
0.11483075 0.025116581 1.2933952 15895054
0.12538791 0.025260463 1.2930347 15895054
0.13443178 0.025058016 1.292596 15895054
0.14501464 0.026830599 1.2928845 15895054
0.15519477 0.026969315 1.292537 15895054
0.16537488 0.027108075 1.2921894 15895054
0.1728434 0.027405264 1.2920125 15895054
0.2054687 0.027762951 1.290864 15895054
0.21356389 0.027960215 1.2906221 15895054
0.25530702 0.02882215 1.289314 7191301
0.26153591 0.029395543 1.2892964 7191301
-0.35530415 0.024767011 1.3118638 12177892
-0.045312047 0.028991461 1.3012804 14102335
-0.010111477 0.029471157 1.3000786 14102335
-0.0044339672 0.029548531 1.2998848 14102335
0.001243544 0.029625904 1.299691 14102335
0.015493453 0.030682161 1.2995485 8883528
0.025173038 0.032728776 1.2999823 8883528
0.035387512 0.0329144 1.2996521 8883528
0.045584667 0.032870032 1.2992307 8883528
0.0546409 0.032808751 1.2988478 8883528
0.064815223 0.032650694 1.2983822 8883528
0.074992806 0.032715317 1.298005 8883528
0.083583288 0.033292137 1.2978952 15895054
0.095957331 0.033345822 1.2974268 15895054
0.1047273 0.033372212 1.2970903 15895054
0.11489537 0.034267928 1.2970454 15895054
0.12479274 0.033579338 1.2963789 15895054
0.13507137 0.03419774 1.2962189 15895054
0.14526036 0.034320597 1.2958646 15895054
0.15505369 0.034195047 1.2954268 15895054
0.16526709 0.035384599 1.2954973 15895054
0.17453179 0.034071781 1.2946066 15895054
0.18472733 0.035187691 1.2946485 15895054
0.19515024 0.034786984 1.294076 7191301
0.20507215 0.034487963 1.293564 7191301
0.21507694 0.034829985 1.2933044 7191301
0.22096956 0.038612634 1.2945811 7191301
0.23830318 0.038197543 1.2937293 7191301
0.2458277 0.037145663 1.2930115 7191301
0.25466335 0.035904538 1.2921665 7191301
0.2633765 0.037197102 1.2923377 7191301
0.2786569 0.039398778 1.2926116 7191301
0.28640479 0.038190544 1.2918226 7191301
0.2944437 0.037501875 1.2912295 7009712
0.30432099 0.037934102 1.2910111 9570851
0.31483752 0.038914792 1.2909863 7009712
0.32542479 0.038792606 1.2905185 7009712
0.33406666 0.039176896 1.2903298 7009712
0.34086877 0.040246572 1.2904876 7009712
0.36688465 0.040601112 1.2895994 7009712
0.37140915 0.040662766 1.2894449 7009712
0.03651813 0.041340977 1.3029708 8883528
0.043043677 0.0406572 1.3024396 8883528
0.066232614 0.042137679 1.3021128 8883528
0.075222194 0.042918772 1.3020688 8883528
0.085414529 0.042870808 1.3016462 8883528
0.095409766 0.042966213 1.3012886 8883528
0.10450505 0.043255061 1.301044 15895054
0.11679316 0.04277372 1.3003654 15895054
0.12543847 0.04387233 1.3004618 15895054
0.13475963 0.043791685 1.3000606 8883528
0.14562254 0.042381987 1.299068 15895054
0.1547375 0.044467799 1.2995397 5189111
0.164957 0.044607133 1.2991908 15895054
0.17505224 0.044278286 1.29866 15895054
0.18534023 0.044698704 1.2984207 5189111
0.19528365 0.043969039 1.2977357 5189111
0.20473991 0.043163907 1.2970402 5189111
0.21516749 0.044783652 1.297274 6598031
0.22492741 0.044932283 1.2969469 6598031
0.23624235 0.044527631 1.2963375 6598031
0.24528785 0.045002233 1.2961692 6598031
0.25418589 0.044449911 1.2955964 6598031
0.26485026 0.044006784 1.2949973 6598031
0.27541655 0.04460692 1.2948185 6598031
0.28511491 0.04576033 1.2948953 6598031
0.29585755 0.045970615 1.2945539 7191301
0.30462381 0.046510417 1.2944224 7191301
0.31473753 0.046462096 1.2940029 9570851
0.32479191 0.046319854 1.2935482 9570851
0.33511174 0.046646319 1.2932699 9570851
0.34480065 0.046880178 1.29298 9570851
0.3554154 0.046915408 1.2925737 9570851
0.36452287 0.046695754 1.2921256 7009712
0.37436613 0.045982096 1.2914511 7009712
0.38415003 0.047835022 1.2918035 9570851
0.39466617 0.048578147 1.2916838 5144007
0.40510824 0.047663987 1.2909056 5144007
0.41418794 0.048611879 1.2909247 5144007
0.42542374 0.047586456 1.2900705 5144007
0.4344779 0.048035499 1.2898915 5144007
0.44164678 0.048458938 1.2897767 5144007
0.45295805 0.048613064 1.2893904 5144007
0.53554559 0.050715536 1.2869608 14735805
0.12795164 0.049660489 1.3026726 8883528
0.13173665 0.049712069 1.3025434 8883528
0.15708588 0.049403623 1.3014169 5189111
0.16506535 0.051473979 1.3019274 5189111
0.17528486 0.051613178 1.3015785 5189111
0.18529512 0.051571257 1.3011657 5189111
0.19567406 0.051733375 1.3008196 5189111
0.20461701 0.051053073 1.300194 5189111
0.21600293 0.052308217 1.3002443 5189111
0.22550938 0.052882794 1.3000976 5189111
0.2356081 0.053416103 1.2999105 6598031
0.24482277 0.051825251 1.2989109 6598031
0.30698767 0.052427165 1.2966907 6598031
0.3149671 0.054497559 1.2972012 7191301
0.32518664 0.054636806 1.2968522 9570851
0.33540615 0.054776099 1.2965034 9570851
0.34562564 0.054915342 1.2961544 9570851
0.35470971 0.055039138 1.2958443 9570851
0.3649292 0.055178422 1.2954955 9570851
0.37514871 0.055317674 1.2951465 9570851
0.38423273 0.055441458 1.2948364 9570851
0.39820117 0.053343322 1.2934461 9570851
0.40510434 0.054352749 1.2935758 9570851
0.41512796 0.055707663 1.2937198 5144007
0.42506415 0.054476254 1.2928349 5144007
0.43495256 0.054229572 1.2923452 5144007
0.44454074 0.055076748 1.2923038 5144007
0.45551068 0.054749001 1.2917389 5144007
0.46361801 0.055271599 1.2916263 12263132
0.47231048 0.056692731 1.2918496 5144007
0.52886671 0.05746346 1.2899187 14735805
0.53449148 0.055586081 1.2889467 14735805
0.54311615 0.05638003 1.2889223 14735805
0.55150467 0.058748916 1.2895359 14735805
0.56844074 0.057025753 1.2881776 14735805
0.57427716 0.056616727 1.2877834 14735805
0.24010134 0.058381118 1.3017145 6598031
0.31390899 0.059386972 1.2991946 7191301
0.327535 0.059572633 1.2987294 9570851
0.33590332 0.062302165 1.2994877 9570851
0.34574941 0.062763229 1.2992821 9570851
0.35484898 0.063868031 1.2993629 9570851
0.36506847 0.064007305 1.2990141 9570851
0.37528795 0.064146571 1.298665 9570851
0.38442853 0.064064629 1.2982707 9570851
0.41611964 0.061760612 1.2960966 12263132
0.42540237 0.064052865 1.2966441 12263132
0.43424454 0.063845135 1.2962112 12263132
0.44465542 0.064089119 1.2958965 12263132
0.45536128 0.064852647 1.2957777 12263132
0.46418732 0.064183757 1.2951614 12263132
0.47288111 0.06419076 1.29482 12263132
0.48571604 0.066023268 1.2950432 12263132
0.49326503 0.065966584 1.294722 12263132
0.50754493 0.067919821 1.2949363 14735805
0.51546282 0.068027705 1.2946661 14735805
0.52897459 0.064303905 1.2926447 14735805
0.53463024 0.064380929 1.2924517 14735805
0.54535282 0.065072127 1.2923032 14735805
0.55457985 0.065507658 1.2921118 14735805
0.56589967 0.065732576 1.2917536 14735805
0.57535082 0.064935833 1.2910615 5163669
0.58219916 0.068937153 1.2923876 5163669
0.59597731 0.067757122 1.2913711 5163669
0.60366744 0.067764193 1.2910696 5163669
0.36629686 0.069908611 1.3013209 9570851
0.37651637 0.070047908 1.3009721 9570851
0.38105834 0.070109777 1.3008169 9570851
0.42762941 0.071725182 1.2996185 12263132
0.43444243 0.071818016 1.2993859 12263132
0.44464648 0.070976339 1.298646 12263132
0.4514595 0.071069174 1.2984134 12263132
0.46770307 0.072691709 1.298418 12263132
0.47557557 0.074144021 1.2986863 12263132
0.4844355 0.074460901 1.298462 12263132
0.49462324 0.073285721 1.2975895 12263132
0.50535971 0.072774947 1.2969608 14735805
0.51553935 0.07324677 1.2967464 14735805
0.52489644 0.075174503 1.2971452 14735805
0.53436661 0.073179774 1.2959743 14735805
0.54606038 0.074074544 1.2958685 14735805
0.5549829 0.074440487 1.2956616 14735805
0.56504554 0.074784689 1.2954006 14735805
0.57549495 0.074828319 1.2950045 14735805
0.58433032 0.074140146 1.2943802 5163669
0.59471864 0.073992699 1.29391 5163669
0.60489875 0.074131399 1.2935625 1410484
0.61386591 0.075585887 1.2937881 1410484
0.62597769 0.076958917 1.2938567 1410484
0.63093001 0.075463191 1.2930638 1410484
0.47883534 0.079288438 1.3006105 12263132
0.48520035 0.079767495 1.3005499 12263132
0.49566871 0.082412243 1.3011912 12263132
0.50529385 0.083461575 1.3012291 14735805
0.51523328 0.08370766 1.300934 14735805
0.52447504 0.083553329 1.3005065 14735805
0.54810101 0.080232374 1.2982458 14735805
0.55492949 0.081306212 1.2984041 14735805
0.56541651 0.083255902 1.2987672 14735805
0.57452846 0.082308874 1.2980286 14735805
0.58471698 0.083444208 1.2980787 1410484
0.5944739 0.083459146 1.2976983 1410484
0.6047681 0.082950942 1.297088 1410484
0.61527812 0.083994575 1.2970885 1410484
0.62584609 0.083613142 1.296518 1410484
0.63196224 0.084099784 1.2964702 1410484
0.51874816 0.090620846 1.3035543 14735805
0.5868628 0.090568356 1.3008372 1410484
0.59142029 0.091611199 1.3010732 1410484
0.61754799 0.091247827 1.299894 1410484
0.62629759 0.091367073 1.2995952 1410484
0.63268203 0.092500523 1.2997948 1410484
-0.33346489 -0.0085557252 1.2976984 12177892
-0.32320598 -0.0084159495 1.2973481 12177892
-0.31183827 -0.010230134 1.296174 85491
-0.30877787 -0.0088757062 1.2965935 85491
-0.1704621 -0.0063343751 1.2921332 46273
-0.33392352 -0.0031201751 1.2998862 12177892
-0.3254081 -0.0035231707 1.2993883 12177892
-0.31172952 -0.0033367586 1.2989212 85491
-0.30579081 -0.0025338116 1.2990068 85491
-0.29630232 -0.0006651599 1.2993771 4238912
-0.27141753 -0.00049012515 1.298462 3035829
-0.26496336 -0.00073038111 1.2981107 3035829
-0.25586876 -0.0021536029 1.2971827 3035829
-0.24634708 -0.00058608921 1.2974315 3035829
-0.23645087 0.0006427617 1.2975302 3035829
-0.22391218 0.00081362796 1.2971021 3035829
-0.21479315 0.00093790249 1.2967907 3035829
-0.17038444 -0.0014105493 1.2940955 46273
-0.16562717 -0.00085348589 1.2941297 46273
-0.14070097 0.0019475991 1.2942612 46273
-0.13842121 0.0019786456 1.2941834 46273
-0.34413993 0.0062077264 1.304014 3533792
-0.33563352 0.0043216888 1.3029244 3533792
-0.32528383 0.0043549347 1.302528 3533792
-0.31460398 0.0047153905 1.3022491 85491
-0.30441251 0.0046143783 1.3018055 85491
-0.29473197 0.0049682315 1.3015636 4238912
-0.28582221 0.0062710727 1.301731 4238912
-0.27440694 0.0056635942 1.3010367 3035829
-0.2648702 0.0051782206 1.3004655 3035829
-0.25575113 0.0053024944 1.3001541 3035829
-0.24549223 0.0054423148 1.2998039 3035829
-0.2352995 0.0056904396 1.2994995 3035829
-0.22521189 0.0058741346 1.2991735 3035829
-0.21470885 0.0062837806 1.2989212 3035829
-0.20558091 0.0069707776 1.2988342 3035829
-0.19643079 0.0090645561 1.2993078 3035829
-0.17026016 0.0064675556 1.2972354 46273
-0.16456077 0.0065451944 1.2970408 46273
-0.15536265 0.0068675452 1.2968053 46273
-0.14518283 0.0068092886 1.2963792 46273
-0.13605389 0.0075602457 1.2963176 46273
-0.35207042 0.014277244 1.3075488 12177892
-0.34452468 0.013894188 1.3070972 12177892
-0.3350434 0.014203368 1.3068454 3533792
-0.32487512 0.013627852 1.3062133 3533792
-0.31521446 0.014265361 1.3060852 85491
-0.30475041 0.013110109 1.3052099 85491
-0.29535306 0.015001518 1.305593 4238912
-0.28606704 0.014730233 1.3051172 4238912
-0.2747983 0.013258426 1.3040837 3035829
-0.2649101 0.014305385 1.3041102 3035829
-0.25534695 0.014842621 1.3039461 3035829
-0.24656998 0.013806791 1.3031852 3035829
-0.23574995 0.015790483 1.3035488 3035829
-0.22456972 0.016095264 1.303228 3035829
-0.21492501 0.015342931 1.3025459 3035829
-0.20503803 0.01573091 1.3023094 3035829
-0.19507861 0.015691742 1.3018996 3035829
-0.18517813 0.016057514 1.3016537 3035829
-0.17477848 0.015480265 1.3010118 46273
-0.16494115 0.016556123 1.3010517 46273
-0.15541862 0.015797513 1.300372 46273
-0.14504305 0.015672211 1.2999113 46273
-0.1347841 0.015812032 1.299561 46273
-0.1263991 0.017567204 1.2999297 46273
-0.11446732 0.017795485 1.2995486 46273
-0.10513169 0.017200677 1.2989416 46273
-0.095096737 0.019197086 1.2993414 46273
-0.084598325 0.018465001 1.2986337 14102335
-0.077743508 0.019543003 1.2987926 14102335
-0.35414097 0.022558644 1.3109363 12177892
-0.34244052 0.023647796 1.3109081 12177892
-0.33675039 0.021748664 1.3099247 3533792
-0.31616938 0.021040823 1.3088275 85491
-0.2944285 0.021337071 1.3080853 4238912
-0.28985146 0.021399472 1.3079289 4238912
-0.26313135 0.023081386 1.3075427 3035829
-0.2540125 0.024429249 1.3077199 3035829
-0.24865821 0.021960827 1.3065226 3035829
-0.2362566 0.024897169 1.3072039 3035829
-0.2259645 0.024642084 1.3066946 3035829
-0.21470155 0.023082502 1.3056264 3035829
-0.20602295 0.023283098 1.3053629 3035829
-0.19416353 0.024482436 1.3053724 3035829
-0.18567728 0.025784045 1.3055559 46273
-0.17652324 0.025908807 1.3052434 46273
-0.16319957 0.024443233 1.304131 46273
-0.15528744 0.026417805 1.304606 46273
-0.14467859 0.025023902 1.3036296 46273
-0.13524482 0.026246689 1.3037444 46273
-0.12546591 0.026624508 1.3035082 46273
-0.11493344 0.02522831 1.3025339 46273
-0.10507998 0.025304813 1.3021744 46273
-0.094748497 0.025218554 1.3017312 14102335
-0.084489577 0.025358375 1.3013809 14102335
-0.07537055 0.025482647 1.3010696 14102335
-0.065614805 0.025834385 1.3008238 14102335
-0.058225755 0.028669976 1.3016632 14102335
-0.034288283 0.028996207 1.3008459 14102335
-0.026309127 0.029104937 1.3005735 14102335
-0.01605021 0.029244756 1.3002231 14102335
-0.3565636 0.030397922 1.3141614 3533792
-0.18331082 0.030758006 1.3074477 46273
-0.1787338 0.030820409 1.3072914 46273
-0.1506761 0.03268525 1.3069253 46273
-0.14476672 0.032601114 1.3066576 46273
-0.13523643 0.032401528 1.3062007 46273
-0.12420151 0.033910803 1.3063666 46273
-0.11460862 0.034659259 1.3062855 46273
-0.10541966 0.034670502 1.3059262 46273
-0.094760291 0.033553764 1.3050587 14102335
-0.084365308 0.033236526 1.3045205 14102335
-0.075360633 0.033820797 1.3043975 14102335
-0.065176375 0.034327317 1.3041965 14102335
-0.054536201 0.034420293 1.3038125 14102335
-0.04558697 0.035187099 1.3037643 14102335
-0.035551425 0.034875758 1.3032428 14102335
-0.02522401 0.034963742 1.3028691 14102335
-0.015177893 0.035207719 1.3025689 14102335
-0.0046202177 0.035923287 1.3024366 14102335
0.0047361087 0.035140064 1.3017536 8883528
0.014847703 0.03734535 1.3022336 8883528
0.0251408 0.039651599 1.3027469 8883528
-0.35636419 0.040259752 1.3180898 12177892
-0.12139619 0.039508462 1.3084898 46273
-0.11451505 0.040590581 1.3086493 46273
-0.10461725 0.041713819 1.308706 46273
-0.094809823 0.043071043 1.3088595 14102335
-0.085062347 0.042827412 1.3083766 14102335
-0.075316168 0.0436504 1.3083193 14102335
-0.065265201 0.044226632 1.3081514 14102335
-0.055114858 0.044843256 1.3079958 485245
-0.044966418 0.044673912 1.3075264 14102335
-0.035393927 0.044181913 1.3069512 14102335
-0.025958911 0.041204404 1.3053893 14102335
-0.013517625 0.045041662 1.3064286 14102335
-0.004562641 0.044845797 1.3059959 14102335
0.0045344727 0.045177869 1.3057684 14102335
0.014539713 0.045657929 1.305564 8883528
0.025193611 0.045162421 1.3049444 8883528
0.034240194 0.046558104 1.3051435 8883528
0.046360012 0.045538638 1.3042568 8883528
0.054865897 0.045450427 1.303885 8883528
0.062872499 0.047186196 1.3042608 8883528
0.099357247 0.048539404 1.303357 8883528
0.10618617 0.047976129 1.3028618 8883528
0.11351513 0.047336247 1.3023163 15895054
0.12215484 0.048850089 1.3025787 8883528
0.13811316 0.04906759 1.3020338 8883528
0.1449369 0.048176043 1.3014078 15895054
0.25627032 0.050021447 1.2977377 6598031
0.26462424 0.049807116 1.2973216 6598031
0.2730687 0.050512899 1.2972691 6598031
0.28743738 0.05110253 1.2969357 6598031
0.29313681 0.051180217 1.2967411 7191301
0.39116645 0.052516095 1.2933943 9570851
-0.35578179 0.048174337 1.3212261 12177892
-0.074066639 0.05327139 1.3121101 14102335
-0.065636896 0.052897003 1.3116269 14102335
-0.054471131 0.05162162 1.310676 14102335
-0.044152018 0.053079981 1.3108495 14102335
-0.035170402 0.05326239 1.3105669 14102335
-0.013664495 0.051848292 1.3091512 14102335
-0.0079588024 0.050937705 1.3085619 14102335
0.0069165369 0.051140454 1.308054 14102335
0.014973127 0.054215159 1.3089625 8883528
0.025271436 0.054355547 1.3086108 8883528
0.035067748 0.053532545 1.3078947 850764
0.045235336 0.05453198 1.3078911 850764
0.055022124 0.054760963 1.3075951 850764
0.065288305 0.054236885 1.3069797 850764
0.075551383 0.053973943 1.3064684 8883528
0.084664553 0.053859744 1.3060621 8883528
0.094935037 0.053975817 1.3057021 8883528
0.10528132 0.054735582 1.3055956 8883528
0.11620089 0.053123921 1.3045201 8883528
0.12402511 0.055325359 1.3050894 8883528
0.13550274 0.05507338 1.3045343 5189111
0.14471279 0.054816123 1.3040671 5189111
0.15440446 0.055305827 1.303879 5189111
0.16445465 0.057303015 1.3042784 5189111
0.17471357 0.057442792 1.3039281 5189111
0.18580021 0.055870902 1.3028619 5189111
0.19523142 0.057722431 1.3032275 5189111
0.20547999 0.057205714 1.3026158 5189111
0.21345395 0.056986205 1.3022125 5189111
0.23854683 0.05831271 1.3017488 6598031
0.2473615 0.057202145 1.3009566 6598031
0.2555984 0.05559139 1.2999877 6598031
0.26471749 0.055715669 1.2996764 6598031
0.2747339 0.055696767 1.2992722 6598031
0.28506404 0.056504559 1.2991859 6598031
0.29435435 0.056119531 1.2986646 6598031
0.30376613 0.056740105 1.2985396 6598031
0.39443889 0.057680447 1.2953261 9570851
0.40410268 0.059830409 1.2958019 9570851
0.41180855 0.060673881 1.2958333 5144007
-0.074200965 0.057941694 1.3139795 14102335
-0.069623932 0.058004051 1.3138232 14102335
-0.034136374 0.059475999 1.3130062 485245
0.015605588 0.060838155 1.311581 8883528
0.02564944 0.061583225 1.3114809 850764
0.034055386 0.06209958 1.3113543 850764
0.044634443 0.061043676 1.3105141 850764
0.055502295 0.061027013 1.3100773 850764
0.065302305 0.062284514 1.3101914 850764
0.076135322 0.063614227 1.3102933 850764
0.084970087 0.063855983 1.3100402 850764
0.094574161 0.062481884 1.3091116 850764
0.10624661 0.062706925 1.3087393 5189111
0.13405381 0.060779735 1.3068694 5189111
0.14322346 0.061893079 1.3069508 5189111
0.15588109 0.063452847 1.3070724 5189111
0.16475575 0.064090565 1.3069758 5189111
0.17525148 0.063532256 1.3063375 5189111
0.1853306 0.064029068 1.3061368 5189111
0.19453102 0.064786159 1.306075 5189111
0.20493551 0.065313928 1.3058738 6598031
0.21534294 0.063428558 1.3047092 6598031
0.224849 0.06330274 1.3042828 6598031
0.23539835 0.064857647 1.3044858 6598031
0.24586329 0.064970911 1.304117 6598031
0.25579506 0.065703623 1.3040162 6598031
0.26452091 0.065762192 1.3036942 6598031
0.27455002 0.065973856 1.3033819 6598031
0.28517085 0.066281453 1.3030841 6598031
0.29487559 0.06576401 1.3024935 6598031
0.30475301 0.065122269 1.3018464 9570851
0.31502751 0.066246882 1.3018885 9570851
0.32497892 0.065740392 1.3012925 9570851
0.33482167 0.068813875 1.3021299 9570851
0.34471101 0.069605023 1.3020542 9570851
0.35041037 0.06968271 1.3018595 9570851
0.38460678 0.070148714 1.3006921 9570851
0.39534089 0.067134529 1.2990642 9570851
0.4050625 0.066489257 1.2984217 9570851
0.41485286 0.067888521 1.2985928 12263132
0.42162955 0.069176398 1.2988386 12263132
0.087310806 0.071014412 1.3128048 850764
0.15596622 0.071950041 1.3104608 5189111
0.19582562 0.073661327 1.3095661 5189111
0.20452096 0.074181363 1.3094296 6598031
0.23949701 0.07308834 1.307609 6598031
0.24580862 0.074327469 1.3078537 6598031
0.25233451 0.07464698 1.3077229 6598031
0.26465508 0.072442859 1.3063556 6598031
0.27380911 0.072567627 1.306043 6598031
0.28940842 0.075152203 1.3064573 6598031
0.29505113 0.074713551 1.3060589 6598031
0.30489284 0.073985159 1.3053786 9570851
0.31528309 0.074374549 1.3051226 9570851
0.32523775 0.075251192 1.3050786 9570851
0.33517921 0.075281307 1.3046972 9570851
0.34478864 0.074528843 1.3040165 9570851
0.35504755 0.074668676 1.3036662 9570851
0.36498749 0.075226083 1.3034953 9570851
0.3741065 0.075350359 1.3031839 9570851
0.38506958 0.075405978 1.3027722 9570851
0.39629143 0.077201702 1.3030449 9570851
0.4052023 0.075352132 1.3019539 9570851
0.41546118 0.07549195 1.3016037 12263132
0.42409617 0.075890943 1.301421 12263132
0.43487021 0.077725559 1.3017269 12263132
0.4451136 0.076880604 1.3009843 12263132
0.45574212 0.076369077 1.3003594 12263132
0.46486631 0.076821595 1.3001789 12263132
0.47250178 0.07922297 1.3008351 12263132
0.53631955 0.079108074 1.2982634 14735805
0.54429865 0.079216845 1.2979909 14735805
0.20184566 0.079493567 1.311656 6598031
0.29568806 0.083008155 1.3093444 6598031
0.30491453 0.083103523 1.3090173 9570851
0.31502685 0.083142631 1.3086327 9570851
0.32276589 0.081800312 1.3077906 9570851
0.3361271 0.082420208 1.3075092 9570851
0.34387079 0.08241345 1.3072001 9570851
0.35517609 0.081583135 1.306421 9570851
0.36527392 0.082976185 1.3065776 9570851
0.37451679 0.084338509 1.3067554 9570851
0.38463563 0.082898758 1.3057802 9570851
0.39608237 0.085279934 1.3062776 9570851
0.40550759 0.084017739 1.3054006 9570851
0.41508958 0.084766731 1.3053203 12263132
0.42494068 0.085388325 1.3051785 12263132
0.43516546 0.083732501 1.3041129 12263132
0.4448534 0.085521445 1.3044436 12263132
0.45519674 0.085004196 1.3038276 12263132
0.4655962 0.084462076 1.3031999 12263132
0.47485918 0.084177844 1.3027196 12263132
0.4848102 0.085438691 1.3028289 12263132
0.49314386 0.08738067 1.3032744 12263132
0.53527284 0.085001156 1.300657 14735805
0.54530692 0.085334837 1.3003931 14735805
0.55429673 0.086901329 1.3006625 14735805
0.56114638 0.087651014 1.3006908 14735805
0.57746392 0.086560681 1.2996095 14735805
0.58089912 0.087591998 1.2998854 14735805
0.36788768 0.089663066 1.3091431 9570851
0.37706253 0.091105886 1.309356 9570851
0.3845301 0.093101867 1.3098571 5918287
0.39498925 0.09135019 1.3087438 9570851
0.40567935 0.092154793 1.3086418 9570851
0.4148334 0.092279509 1.3083293 12263132
0.42255324 0.09213759 1.3079672 12263132
0.44572836 0.092700511 1.3072746 12263132
0.45491356 0.094802245 1.3077499 12263132
0.4656198 0.09410625 1.3070484 12263132
0.47503227 0.093798906 1.306553 12263132
0.48531622 0.09408135 1.3062588 12263132
0.49534017 0.093525194 1.3056401 12263132
0.50457978 0.094138846 1.3055193 14735805
0.51440716 0.094781145 1.3053867 14735805
0.52554822 0.094648585 1.3048928 14735805
0.5357101 0.094941922 1.3046076 14735805
0.5453822 0.095631085 1.3044999 14735805
0.55459487 0.095242001 1.3039801 14735805
0.56480855 0.09481322 1.3034046 14735805
0.57513613 0.094690539 1.3029469 14735805
0.58421099 0.095348977 1.3028505 1410484
0.59518814 0.096372269 1.3028244 1410484
0.60502601 0.095324866 1.302017 1410484
0.61395216 0.096361004 1.3020772 1410484
0.62563127 0.097718976 1.302157 1410484
0.63500363 0.097846687 1.3018371 1410484
0.45847112 0.10275756 1.3107845 12263132
0.46535224 0.10383955 1.3109442 12263132
0.47450632 0.10396431 1.3106316 12263132
0.48503819 0.10345975 1.3100133 12263132
0.49537984 0.10321793 1.3095074 12263132
0.50512677 0.1036849 1.3093081 14735805
0.51529002 0.10349739 1.308831 14735805
0.52527726 0.10385419 1.3085779 14735805
0.5357424 0.10473065 1.3085136 14735805
0.54545027 0.10493112 1.3082094 14735805
0.55460429 0.10505588 1.3078969 14735805
0.56449056 0.10466736 1.3073505 14735805
0.57576019 0.10452068 1.3068458 1410484
0.58434826 0.10503767 1.3067124 1410484
0.59465343 0.1056016 1.3065295 1410484
0.60495162 0.105742 1.306178 1410484
0.61527038 0.10514055 1.3055295 1410484
0.62564766 0.10486808 1.30501 1410484
0.6353246 0.10622574 1.3051689 1410484
0.6404236 0.10622539 1.304967 1410484
0.45970896 0.10870438 1.3131093 12263132
0.46659234 0.10992771 1.3133252 12263132
0.47415149 0.11048255 1.3132473 12263132
0.48456457 0.10960791 1.3124861 12263132
0.49587369 0.10959259 1.3120323 12263132
0.50549483 0.11031673 1.3119404 14735805
0.51579309 0.11045703 1.311589 14735805
0.5254643 0.11228313 1.3119351 14735805
0.53272873 0.11233504 1.3116683 14735805
0.54669034 0.11101928 1.3105904 14735805
0.55471343 0.11197583 1.3106546 14735805
0.56157905 0.11206936 1.3104203 14735805
0.58788133 0.11143943 1.3091278 1410484
0.5951544 0.11318568 1.3095369 1410484
0.60484439 0.11344959 1.3092588 1410484
0.61534345 0.11181367 1.3081902 1410484
0.62599325 0.1135119 1.3084465 1410484
0.63482702 0.11405582 1.308314 1410484
0.64054835 0.11413381 1.3081187 1410484
0.52734488 0.11753279 1.3139561 14735805
0.53077763 0.1175796 1.3138388 14735805
0.59830439 0.11948814 1.3119279 1410484
0.60356486 0.11936215 1.3116695 1410484
0.62918371 0.11892065 1.3104792 1410484
0.63261658 0.11896742 1.310362 1410484
-0.35088858 0.020376768 1.3099366 12177892
-0.32791591 0.020689838 1.3091524 3533792
-0.31257641 0.02046236 1.3084544 85491
-0.30536804 0.019872773 1.3079338 85491
-0.28354216 0.021228392 1.307611 4238912
-0.27575299 0.020266898 1.3069189 3035829
-0.24438015 0.020092078 1.3056073 3035829
-0.2323871 0.019610588 1.3049406 3035829
-0.35178822 0.02575032 1.3121172 12177892
-0.34851307 0.025369732 1.3118356 12177892
-0.33386016 0.026065519 1.3115333 3533792
-0.32491967 0.026370874 1.3113014 3533792
-0.31456953 0.027366037 1.3112891 85491
-0.30454817 0.027097762 1.3107853 4238912
-0.29451159 0.027097838 1.310388 4238912
-0.28480944 0.027140962 1.3100213 4238912
-0.27483764 0.027841736 1.3099064 4238912
-0.26512149 0.028632138 1.3098372 3035829
-0.25772399 0.029583296 1.3099241 3035829
-0.24605179 0.026964536 1.3084167 3035829
-0.23180242 0.027555509 1.3080887 3035829
-0.22329625 0.028068271 1.3079567 3035829
-0.21582232 0.028666241 1.3078995 3035829
-0.20445238 0.028721955 1.3074716 3035829
-0.19686201 0.029420637 1.3074502 3035829
-0.17162335 0.02778032 1.3057964 46273
-0.16701317 0.028835293 1.306035 46273
-0.35350406 0.033772878 1.3153874 12177892
-0.34494194 0.033355333 1.3148819 3533792
-0.33488965 0.033860441 1.3146856 3533792
-0.32558274 0.035340108 1.3149077 3533792
-0.31501713 0.035232518 1.3144467 85491
-0.3049154 0.035735697 1.3142477 85491
-0.29520944 0.035182722 1.3136427 4238912
-0.28480899 0.035275742 1.3132683 4238912
-0.27493712 0.036144245 1.3132242 4238912
-0.26556712 0.036043998 1.3128133 3035829
-0.25567815 0.035830248 1.3123364 3035829
-0.24482977 0.034660134 1.3114402 3035829
-0.23473856 0.034972608 1.3111653 3035829
-0.22474156 0.035729647 1.3110719 3035829
-0.21498051 0.036961302 1.3111773 3035829
-0.20516783 0.035947286 1.310384 3035829
-0.19561945 0.035390273 1.3097838 3035829
-0.18567887 0.036050998 1.309654 3035829
-0.17487535 0.036239136 1.3093016 46273
-0.16590557 0.036141444 1.3089074 46273
-0.15641643 0.036296565 1.3085939 46273
-0.14455374 0.038212147 1.3088889 46273
-0.13594314 0.038418468 1.3086306 46273
-0.12838519 0.038786769 1.3084784 46273
-0.35341439 0.04227278 1.3187767 12177892
-0.34507227 0.043829057 1.3190677 3533792
-0.33489123 0.043923996 1.3187025 3533792
-0.3255282 0.044417802 1.3185291 3533792
-0.31681398 0.043540761 1.3178341 3533792
-0.3043505 0.042316396 1.316852 3533792
-0.29533818 0.043634262 1.3170214 4238912
-0.28496516 0.044211835 1.3168414 4238912
-0.27479571 0.045109171 1.3167971 3035829
-0.26575693 0.045022704 1.3164048 3035829
-0.25473177 0.043390896 1.315317 3035829
-0.24481738 0.045517724 1.3157736 3035829
-0.23586394 0.045101829 1.3152533 3035829
-0.22495542 0.044045601 1.3143998 3035829
-0.21483906 0.045926228 1.3147502 3035829
-0.20552112 0.045867927 1.314358 3035829
-0.1951993 0.045895819 1.3139606 3035829
-0.18493038 0.045702826 1.313477 14803475
-0.17615454 0.045883894 1.3132019 46273
-0.16457662 0.044925962 1.3123615 14803475
-0.15490769 0.045934647 1.3123814 46273
